0,0,0,0,0,0,0,0,0,0,0,0,0,0,0,0,0,0,0,0,0,0,0,0,0,0,0,0,0,0,0,0,0,0,0,0,0,0,0,0,0,0,0,0,0,0,0,0,0,0,0,0,0,0,0,0,0,0,0,0,0,0,0,0,0,0,0,0,0,0,20,20,20,20,30,10,0,20,0,20,20,10,0,100,260,270,40,70,100,110,120,300,300,400,410,510,500,300,300,330,140,80,160,300,410,350,230,140,280,430,490,530,560,610,750,730,790,700,920,880,1110,1140,1080,1120,1270,1450,1250,1070,1230,920,990,1110,1230,1380,1270,1190,1120,840,490,510,840,920,970,930,860,890,750,620,550,480,460,420,410,300,270,310,450,480,440,600,690,840,820,770,960,1130,1350,1360,1350,1420,1560,1320,1220,1020,930,970,800,800,1060,1270,1210,1350,1450,1350,1210,1120,1000,860,750,740,700,750,500,490,680,1060,990,850,900,1280,1380,1290,1260,1350,1420,1300,1310,1140,1150,1120,1070,1010,840,800,830,890,910,700,520,370,360,420,410,390,290,210,210,200,180,150,150,140,150,120,160,140,150,150,160,170,200,230,270,270,280,280,280,280,310,330,330,370,400,410,520,600,660,770,880,1050,990,1010,1280,1430,1440,1410,1410,1480,1380,1310,1250,1220,1150,950,1000,960,870,760,670,550,700,610,500,660,710,800,940,920,1050,1460,2080,1930,1940,1890,1790,1700,1640,1470,1600,1610,1560,1370,1080,1080,1250,1390,1410,1390,1310,1200,1160,1070,1020,950,900,820,810,810,740,800,730,600,630,670,660,620,600,480,410,360,320,290,330,310,270,220,190,220,200,240,80,30,0,20,60,40,40,30,50,30,20,60,10,10,0,10,210,240,290,250,280,260,250,260,240,250,240,260,220,200,140,130,100,70,70,50,60,80,80,50,50,50,50,50,60,80,70,60,100,70,60,50,80,110,140,140,150,170,210,280,470,490,490,630,710,740,720,700,720,690,640,610,590,600,680,760,750,720,730,790,750,690,620,590,530,550,500,580,620,690,710,720,700,660,640,550,580,710,690,730,770,790,820,880,800,880,940,920,970,880,880,830,780,750,750,730,700,690,640,620,610,620,630,590,550,530,570,510,530,560,570,580,610,640,610,580,580,520,500,530,530,540,600,590,480,460,570,660,630,650,670,740,770,760,710,650,680,750,790,750,770,800,840,840,870,890,890,900,880,870,840,870,850
0,0,0,0,0,0,0,0,0,0,0,0,0,0,0,0,0,0,0,0,0,0,0,0,0,0,0,0,0,0,0,0,0,0,0,0,0,0,0,0,0,0,0,0,0,0,0,0,0,0,0,0,0,0,0,0,0,0,0,0,0,0,0,0,0,0,0,0,0,0,10,10,0,20,30,0,10,0,0,20,10,10,20,100,120,90,50,140,160,210,320,250,300,400,450,410,370,250,120,180,40,80,220,370,400,180,150,250,320,330,270,370,390,460,530,510,560,650,840,940,1080,1150,1170,1310,1280,1420,1530,1280,1180,1050,1140,1250,1350,1550,1520,1360,1040,830,720,590,470,680,730,760,880,700,860,780,630,540,470,380,280,270,290,380,500,560,650,540,620,770,850,960,1080,1260,1240,1170,1330,1490,1520,1350,1370,1320,1120,1010,820,750,1040,1070,1020,1190,1390,1320,1190,1040,950,880,870,650,770,720,490,450,680,890,1020,1000,1070,1400,1380,1130,1200,1300,1410,1360,1120,1140,990,1110,1090,1040,990,920,910,940,980,890,700,530,390,390,320,290,270,220,200,190,190,180,150,150,150,140,200,120,140,150,140,160,180,180,190,220,230,260,260,280,310,310,310,330,360,370,460,540,580,660,730,820,820,990,1140,1330,1390,1370,1390,1450,1380,1300,1150,1200,1060,970,1040,950,850,740,710,570,540,590,490,590,690,730,870,1000,1060,1330,2010,1970,1930,1860,1800,1720,1730,1710,1670,1650,1610,1600,1530,1320,1000,990,1280,1380,1340,1290,1200,1120,1040,960,900,870,820,820,710,680,610,570,680,690,680,610,600,600,530,510,440,380,310,260,220,200,210,190,230,190,130,10,0,10,20,20,20,0,20,0,10,0,0,10,10,50,210,300,290,320,290,290,280,240,230,230,250,240,330,290,220,150,100,90,110,70,40,100,80,60,70,80,70,60,70,100,80,70,100,60,70,80,100,120,110,180,180,160,200,320,410,440,560,640,690,730,720,690,670,660,620,570,570,600,630,740,750,720,740,790,760,670,630,580,520,520,520,590,640,730,780,740,630,600,550,530,690,770,760,820,820,870,850,920,860,930,930,1050,1000,920,810,700,720,720,730,730,730,740,700,650,610,560,570,550,550,620,640,590,480,480,500,520,570,580,550,560,550,560,480,500,550,610,620,590,470,490,570,640,580,630,720,750,770,770,710,690,690,730,790,780,760,800,810,850,880,890,900,880,880,880,890,850,860
0,0,0,0,0,0,0,0,0,0,0,0,0,0,0,0,0,0,0,0,0,0,0,0,0,0,0,0,0,0,0,0,0,0,0,0,0,0,0,0,0,0,0,0,0,0,0,0,0,0,0,0,0,0,0,0,0,0,0,0,0,0,0,0,0,0,0,0,0,0,20,10,20,0,0,10,0,30,10,20,0,20,10,10,10,0,20,20,140,90,220,290,150,300,400,190,180,190,100,50,80,210,290,350,290,100,150,190,230,360,450,530,530,450,480,550,640,740,730,860,980,1170,1190,1280,1400,1490,1640,1270,1160,1280,1370,1490,1460,1600,1650,1450,1220,1150,1090,800,490,620,530,660,940,740,580,780,840,770,530,420,260,270,270,510,550,640,690,790,700,820,790,970,1170,1030,1090,1190,1370,1410,1250,1300,1220,1180,950,910,750,710,790,950,800,1090,1360,1260,1120,1030,900,700,720,640,680,630,500,490,550,590,720,940,1000,1250,1350,1170,1000,1150,1240,1360,1230,1060,930,990,990,1000,1020,1030,1000,1030,1030,1070,950,600,610,490,330,260,230,220,200,190,160,170,150,150,170,170,140,150,140,140,150,160,160,160,200,230,250,240,260,300,320,300,330,310,350,450,470,480,510,550,620,710,770,920,1080,1250,1350,1320,1350,1380,1330,1220,1100,1080,1070,1000,960,920,830,700,610,530,520,500,490,630,670,780,930,1010,1030,1270,2000,2040,1970,1880,1810,1760,1710,1660,1600,1610,1570,1590,1550,1440,1300,1130,880,1310,1320,1290,1210,1130,1040,960,900,910,860,790,840,820,680,640,700,690,660,640,640,610,540,530,530,470,400,360,270,240,260,280,250,170,200,30,0,0,10,40,10,30,20,10,30,0,0,0,10,140,240,300,290,290,280,260,250,250,230,230,340,320,310,300,240,150,120,90,90,90,60,70,90,110,70,70,50,90,70,70,90,110,110,90,80,70,100,110,80,150,230,200,210,260,330,410,520,590,660,700,700,700,700,640,590,630,590,570,590,620,680,680,700,730,730,660,650,610,610,520,500,560,600,670,750,740,640,560,530,540,630,680,790,820,880,940,940,970,1000,980,1010,1050,920,860,830,720,680,670,680,730,730,710,670,730,680,650,640,660,640,660,650,610,590,500,480,480,480,510,520,530,520,540,490,490,590,610,610,560,470,500,570,620,590,640,630,680,750,770,710,730,730,770,810,820,750,820,840,880,880,880,900,880,870,870,860,890,940
0,0,0,0,0,0,0,0,0,0,0,0,0,0,0,0,0,0,0,0,0,0,0,0,0,0,0,0,0,0,0,0,0,0,0,0,0,0,0,0,0,0,0,0,0,0,0,0,0,0,0,0,0,0,0,0,0,0,0,0,0,0,0,0,0,0,0,0,0,0,20,20,10,10,0,20,10,10,20,20,20,10,20,10,10,0,10,20,10,10,60,100,70,160,360,310,60,70,40,80,170,260,390,390,150,120,230,250,310,400,530,610,640,720,810,820,640,780,960,1030,1200,1170,1120,1220,1300,1450,1650,1410,1330,1360,1550,1660,1620,1720,1740,1500,1410,1460,1200,910,620,410,430,640,890,780,580,510,680,700,680,470,250,260,320,470,590,680,790,950,860,890,920,990,1140,970,1080,1230,1350,1290,1190,1170,1270,1180,1240,1260,1110,820,710,780,780,1080,1320,1230,1150,980,820,800,730,580,550,540,510,460,720,1000,700,820,850,1090,1290,1240,960,1000,1120,1270,1200,1120,1010,850,920,990,950,990,1030,1060,1070,1100,990,630,620,570,340,250,220,230,180,220,190,180,150,150,160,140,140,130,140,130,160,140,150,150,190,230,220,230,260,300,300,270,310,340,480,540,590,560,540,610,580,620,730,860,1040,1190,1270,1250,1380,1310,1270,1140,1040,1020,1040,940,940,900,830,650,640,480,620,600,490,670,720,790,910,960,1020,1180,1940,2030,1950,1830,1760,1750,1680,1630,1610,1530,1570,1540,1560,1500,1430,1140,930,1200,1260,1280,1200,1130,1070,1000,930,910,860,870,830,760,670,620,650,660,630,630,640,660,600,600,570,500,430,350,270,320,490,380,200,210,170,0,0,0,0,30,30,10,20,10,20,0,0,0,50,80,250,280,280,270,270,280,240,220,210,240,340,330,330,290,240,190,140,100,90,70,70,60,80,110,130,70,90,90,100,80,120,100,140,100,100,80,100,140,150,130,220,390,260,250,310,470,490,490,710,710,730,720,680,660,670,680,600,610,530,590,640,650,670,740,740,680,580,580,600,510,460,540,550,610,670,700,670,540,510,560,590,680,710,760,770,900,990,990,970,970,1010,1050,950,720,740,770,730,680,730,810,780,730,730,750,740,720,680,700,720,700,680,650,600,550,500,440,430,460,470,510,520,490,510,570,590,610,590,520,460,500,490,530,540,600,600,690,720,780,760,750,770,790,830,860,800,780,840,880,910,910,890,850,860,830,910,950,920
0,0,0,0,0,0,0,0,0,0,0,0,0,0,0,0,0,0,0,0,0,0,0,0,0,0,0,0,0,0,0,0,0,0,0,0,0,0,0,0,0,0,0,0,0,0,0,0,0,0,0,0,0,0,0,0,0,0,0,0,0,0,0,0,0,0,0,0,0,0,20,30,20,10,0,10,30,20,0,20,20,20,0,10,100,10,0,30,30,30,20,20,110,170,320,370,100,40,130,150,210,210,320,270,90,190,180,250,320,340,350,410,440,540,650,790,890,800,940,1110,1090,980,1020,1100,1230,1330,1650,1550,1530,1560,1660,1820,1780,1870,1670,1250,1300,1220,1240,1000,810,420,360,480,660,880,660,500,420,450,350,360,250,280,410,460,490,600,730,860,980,1060,1120,1160,940,850,1070,1200,1350,1280,1090,960,1100,1210,1230,1250,1290,1060,770,710,710,1050,1280,1190,1030,870,820,650,610,720,690,500,460,550,850,1060,930,1060,1070,1160,1020,1180,1010,910,920,1130,1170,1070,1030,870,850,890,890,900,980,1060,1070,930,920,700,590,490,380,280,210,180,200,200,180,160,160,130,140,120,150,130,140,140,140,140,150,150,180,230,230,240,290,290,260,280,300,360,530,680,760,720,660,620,590,630,730,840,990,1130,1200,1300,1320,1280,1160,1090,1030,980,960,900,900,870,790,610,630,450,560,590,600,700,740,770,850,820,840,1030,1800,1990,1870,1880,1760,1700,1640,1600,1520,1500,1310,1220,1190,1150,1400,1280,1020,870,1100,1240,1160,1070,1050,950,900,920,960,870,820,780,740,630,640,690,680,670,670,660,600,620,560,540,480,400,320,400,440,260,190,160,140,10,0,0,10,50,0,0,10,0,0,0,10,10,60,270,290,280,300,280,260,290,270,200,190,340,340,330,310,300,240,240,180,160,110,130,90,70,60,110,140,100,90,100,80,130,170,100,100,110,120,120,100,180,160,190,210,380,370,300,370,370,440,570,590,640,730,740,710,690,710,700,700,660,680,540,650,620,670,730,710,600,550,520,510,530,480,530,580,630,640,650,680,560,500,540,610,660,650,730,810,840,940,980,940,810,830,970,870,740,740,750,700,800,800,820,850,790,760,740,740,720,720,700,690,660,670,620,610,580,540,560,480,410,420,480,500,480,490,570,600,630,550,460,450,520,590,520,520,570,600,650,710,770,790,780,810,840,860,870,860,830,800,860,870,900,910,900,850,850,890,940,880
0,0,0,0,0,0,0,0,0,0,0,0,0,0,0,0,0,0,0,0,0,0,0,0,0,0,0,0,0,0,0,0,0,0,0,0,0,0,0,0,0,0,0,0,0,0,0,0,0,0,0,0,0,0,0,0,0,0,0,0,0,0,0,0,0,0,0,0,0,0,10,20,60,40,20,0,10,0,30,0,0,10,20,110,170,140,140,110,90,30,10,10,50,120,250,230,140,50,80,90,90,150,230,230,120,390,270,220,290,380,550,450,530,650,660,830,920,840,920,920,1040,850,930,1010,990,1320,1600,1460,1610,1700,1750,1940,1880,1910,1710,1290,1020,910,1020,890,630,410,370,390,580,760,750,610,450,350,320,260,250,290,360,500,600,650,680,770,830,990,1140,1090,820,890,1040,1180,1350,1300,1220,1000,940,1190,1050,1150,1230,1040,730,710,720,1020,1250,1170,1050,930,880,730,730,750,640,450,660,900,940,970,1090,1140,1190,1060,960,1010,950,850,890,1030,1140,1030,960,910,900,780,860,810,970,1050,1060,950,630,710,620,530,310,260,230,190,180,200,140,140,120,140,120,120,130,140,170,120,130,120,150,180,200,230,250,280,280,300,250,280,340,420,580,790,960,970,820,660,590,620,740,820,980,1130,1210,1240,1280,1190,1110,1050,980,940,940,810,860,810,680,640,600,450,480,500,600,660,680,760,760,700,840,970,1610,1980,1920,1810,1730,1710,1660,1530,1430,1440,1410,1320,1390,1210,1000,1380,1200,810,1040,1210,1150,1130,1030,960,920,970,970,920,860,820,770,680,650,680,660,690,690,650,660,650,630,540,470,390,290,340,300,200,170,120,40,0,0,0,0,10,0,0,0,20,20,10,0,20,30,230,260,270,290,290,280,260,230,180,270,330,310,290,280,290,240,220,190,200,190,180,150,90,80,110,130,150,130,130,120,110,160,120,120,100,150,120,110,220,230,240,270,370,400,390,420,480,410,530,500,560,660,770,760,730,730,710,760,710,590,540,590,570,640,700,630,570,530,490,490,500,450,570,580,620,650,690,680,600,500,530,590,610,660,730,760,820,940,900,850,790,730,920,840,750,670,690,650,770,850,830,890,830,800,750,710,660,690,670,650,650,640,640,580,570,540,500,500,460,390,460,470,460,510,570,610,620,570,480,460,550,640,640,580,600,600,620,700,750,780,810,820,870,850,880,870,850,830,870,890,900,920,880,840,800,850,920,880
0,0,0,0,0,0,0,0,0,0,0,0,0,0,0,0,0,0,0,0,0,0,0,0,0,0,0,0,0,0,0,0,0,0,0,0,0,0,0,0,0,0,0,0,0,0,0,0,0,0,0,0,0,0,0,0,0,0,0,0,0,0,0,0,0,0,0,0,0,0,0,20,70,20,10,20,0,30,30,10,20,20,50,220,280,290,410,360,210,210,0,10,20,90,190,60,20,30,40,20,30,40,90,110,110,370,460,490,490,430,660,690,560,780,810,840,910,730,770,840,980,870,800,900,1060,1240,1480,1280,1300,1410,1610,1750,1710,1600,1500,1560,1330,1200,890,650,790,720,340,340,530,740,940,680,560,500,470,290,230,330,540,510,530,650,790,890,930,1060,1160,830,740,810,990,1150,1330,1250,1080,1050,820,910,910,950,1020,1120,1020,710,710,930,1160,1130,1090,960,830,730,790,820,580,430,650,890,800,870,920,1020,980,1000,890,870,910,850,780,910,1090,1030,910,810,880,760,740,830,950,1030,1030,930,670,510,480,340,300,250,200,180,170,160,160,130,130,120,140,130,140,120,140,120,120,120,140,160,220,200,240,260,240,220,200,270,420,490,560,770,1090,1100,1000,810,620,580,670,770,930,1060,1160,1210,1190,1070,1020,980,940,880,920,800,820,720,690,760,590,470,470,430,590,580,570,680,720,630,700,880,1270,2010,1900,1860,1730,1530,1590,1640,1720,1670,1590,1580,1600,1490,900,1120,1070,780,920,1160,1250,1030,990,960,960,960,1000,980,900,850,780,720,700,700,690,660,630,630,610,420,420,500,450,340,330,280,220,150,130,90,60,0,0,0,10,10,30,10,0,10,20,0,0,0,210,150,240,250,290,270,230,260,210,220,330,320,310,340,310,250,240,200,180,180,190,160,120,90,100,130,140,160,200,210,200,220,170,160,140,150,160,100,130,240,370,350,390,340,400,390,390,430,390,450,450,530,690,710,840,770,780,740,660,650,610,600,540,540,530,620,580,560,530,540,500,460,510,610,630,630,640,670,680,650,520,470,540,620,680,680,740,780,860,860,760,730,720,780,770,720,620,590,660,760,860,930,900,820,790,750,750,690,610,610,600,630,580,600,580,520,500,490,460,470,410,440,460,430,520,560,610,610,550,470,480,540,620,660,630,610,640,710,710,700,770,790,830,850,860,840,860,860,870,860,890,880,880,890,810,820,850,880,820
0,0,0,0,0,0,0,0,0,0,0,0,0,0,0,0,0,0,0,0,0,0,0,0,0,0,0,0,0,0,0,0,0,0,0,0,0,0,0,0,0,0,0,0,0,0,0,0,0,0,0,0,0,0,0,0,0,0,0,0,0,0,0,0,0,0,0,0,0,0,0,30,30,0,10,70,30,20,10,10,10,20,30,110,200,280,330,350,390,210,70,20,40,50,30,30,20,100,100,70,200,160,50,50,90,250,490,530,590,540,630,760,650,620,600,800,770,670,650,690,850,790,810,940,1040,1100,1290,1210,1160,1250,1440,1760,1700,1560,1090,1240,1420,1410,1010,820,870,730,350,300,410,560,810,910,730,660,480,320,220,330,490,620,740,620,670,770,850,1030,1100,770,680,900,1050,1210,1310,1150,1010,880,880,760,760,880,780,960,890,710,710,890,1070,990,980,950,850,750,860,830,660,410,560,790,650,740,860,840,1050,940,860,800,800,850,730,800,1050,980,860,840,740,820,690,860,960,1030,930,660,730,560,390,320,280,240,260,190,160,170,150,130,130,160,170,130,120,120,120,120,110,150,140,140,150,150,170,210,200,190,220,280,320,450,620,660,820,1060,840,770,590,560,610,680,890,1030,1120,1130,1100,1020,1020,980,920,840,820,740,730,710,700,720,660,460,530,560,490,490,560,700,710,530,670,810,1110,1830,1950,1840,1760,1770,1530,1430,1640,1690,1660,1590,1570,1500,1080,810,970,770,760,970,1060,1010,870,920,970,1000,970,1000,930,840,800,740,780,760,700,720,660,480,480,540,470,340,260,220,180,250,150,160,120,80,50,0,0,0,40,20,70,30,10,10,10,10,0,10,230,200,220,260,300,280,240,200,200,260,320,320,230,350,300,230,190,240,210,190,150,130,120,90,100,140,150,220,180,220,260,280,220,220,170,170,130,150,160,180,270,350,350,390,360,350,350,400,390,370,410,550,690,740,830,630,750,760,710,620,580,660,630,510,500,540,530,490,510,500,460,460,550,590,570,580,580,600,630,590,490,490,550,580,640,680,710,780,760,780,720,640,680,610,670,600,580,600,650,760,960,950,910,890,840,760,760,700,660,620,540,580,600,560,560,500,470,430,460,420,350,410,400,410,440,500,550,580,520,430,480,570,610,680,710,680,690,720,750,770,810,840,820,870,860,840,820,870,870,880,880,880,880,840,820,760,840,830,770
0,0,0,0,0,0,0,0,0,0,0,0,0,0,0,0,0,0,0,0,0,0,0,0,0,0,0,0,0,0,0,0,0,0,0,0,0,0,0,0,0,0,0,0,0,0,0,0,0,0,0,0,0,0,0,0,0,0,0,0,0,0,0,0,0,0,0,0,0,0,0,10,10,0,10,40,10,0,10,0,0,10,70,150,250,210,240,320,370,190,60,20,10,0,10,30,50,100,210,70,190,360,300,330,70,220,290,360,420,420,550,700,610,530,540,690,500,610,560,640,790,770,800,800,800,1160,1110,1040,1130,1270,1480,1800,1520,1370,1340,900,1160,1290,1170,1010,880,750,480,290,340,550,760,910,740,530,430,280,220,280,440,620,730,810,770,820,910,1060,1070,730,760,880,1000,1080,1250,1260,1040,940,740,760,710,790,710,790,870,710,710,790,980,950,830,870,800,740,870,900,770,430,490,630,620,680,810,980,1190,970,880,760,670,790,720,720,950,960,860,760,810,720,660,830,980,1030,920,570,570,510,520,360,280,230,200,190,170,150,140,130,130,120,140,120,150,120,120,140,110,110,140,120,130,160,160,170,160,240,300,250,360,510,820,1040,1100,820,760,640,620,530,570,690,910,1010,1100,1090,1050,950,960,990,990,810,780,680,660,680,670,680,660,410,510,460,450,480,290,560,590,520,640,770,970,1230,1840,1870,1690,1540,1510,1220,1350,1660,1660,1520,1620,1510,1120,1030,830,830,780,610,1060,890,840,840,970,1010,1030,1010,930,830,780,850,830,790,760,780,570,550,670,670,600,500,380,340,220,130,60,90,90,50,50,0,0,0,30,160,80,30,10,20,20,0,0,120,200,240,210,270,270,250,190,140,150,230,340,340,250,340,290,250,230,250,260,250,200,150,160,120,140,160,200,280,260,270,270,300,250,220,170,190,150,150,190,180,210,340,330,360,380,310,330,390,390,360,370,440,610,720,620,560,650,740,680,630,600,670,590,630,580,530,520,510,550,540,480,430,500,500,550,580,520,530,570,550,500,520,560,590,640,710,710,720,700,760,690,610,650,650,590,560,580,780,670,720,830,870,880,870,830,750,730,800,670,620,560,520,600,570,530,470,460,440,420,420,370,390,430,420,500,520,570,560,500,430,490,550,640,640,710,740,740,770,790,780,790,850,840,850,860,840,800,850,900,880,860,890,850,840,790,750,750,770,740
0,0,0,0,0,0,0,0,0,0,0,0,0,0,0,0,0,0,0,0,0,0,0,0,0,0,0,0,0,0,0,0,0,0,0,0,0,0,0,0,0,0,0,0,0,0,0,0,0,0,0,0,0,0,0,0,0,0,0,0,0,0,0,0,0,0,0,0,0,0,0,0,20,30,30,20,20,0,10,20,40,10,20,80,210,160,150,240,330,250,140,110,80,0,10,60,130,210,330,230,90,260,330,460,250,90,200,350,570,590,520,580,560,350,470,430,470,530,440,630,800,660,580,670,1010,1190,1010,1020,1170,1300,1350,1580,1580,1300,1000,970,890,910,1000,780,700,570,490,370,290,420,590,770,610,560,370,290,200,230,400,450,680,620,610,700,880,1070,960,660,740,850,880,1020,1220,1250,1120,1050,990,900,710,710,710,710,710,710,710,710,830,900,880,710,650,680,830,800,620,430,440,480,610,690,800,1060,1040,920,870,750,610,710,700,660,900,840,830,810,740,730,690,800,980,1000,810,630,560,440,420,410,250,240,210,180,170,160,130,140,130,150,110,110,110,120,130,150,150,120,130,140,140,130,140,180,310,280,370,510,410,540,910,1000,1010,970,920,710,570,580,610,780,950,1030,1060,1050,1010,930,900,870,760,760,670,610,620,630,610,610,520,400,430,430,360,370,320,430,400,470,580,720,850,960,1180,1790,1850,1900,1660,1630,1270,1220,1250,1100,1460,1600,1560,1320,860,670,810,610,890,990,730,890,960,1000,1100,1060,960,910,860,800,740,720,720,730,560,670,730,690,640,560,480,400,280,170,110,60,30,50,10,0,0,0,50,60,40,40,30,0,10,40,10,110,180,190,190,230,240,220,130,160,160,200,340,340,280,300,320,250,240,260,290,300,260,250,210,160,170,210,330,380,350,320,340,350,320,230,210,200,200,230,260,220,300,320,360,350,330,360,330,360,390,350,360,460,530,620,600,600,690,780,730,700,640,720,640,670,640,630,590,640,640,620,540,500,450,450,490,530,480,460,480,480,460,500,530,550,620,630,660,720,640,670,690,560,630,640,540,530,710,840,820,850,900,900,810,740,790,720,720,740,660,640,610,550,540,530,520,470,420,400,390,380,390,420,480,490,490,530,560,500,470,460,520,570,660,700,730,740,760,750,760,780,810,800,830,850,910,800,780,830,870,850,860,850,850,860,850,810,820,740,680
0,0,0,0,0,0,0,0,0,0,0,0,0,0,0,0,0,0,0,0,0,0,0,0,0,0,0,0,0,0,0,0,0,0,0,0,0,0,0,0,0,0,0,0,0,0,0,0,0,0,0,0,0,0,0,0,0,0,0,0,0,0,0,0,0,0,0,0,0,0,0,0,30,20,20,100,0,0,10,20,170,40,10,10,70,70,100,230,350,270,290,230,160,100,30,130,170,220,350,400,210,250,320,420,510,290,90,170,380,450,400,430,390,280,380,300,390,370,480,630,600,460,650,940,1050,1160,960,1000,1090,1170,1240,1540,1660,1430,1120,950,890,800,870,800,670,550,450,330,260,330,500,710,620,470,460,430,240,220,370,520,570,570,740,900,980,1060,960,550,660,740,880,990,1100,1310,1140,1120,860,780,750,710,850,760,710,710,710,710,730,820,920,770,600,760,850,670,500,400,550,680,650,670,880,1140,1000,790,860,800,610,620,630,660,850,790,700,760,640,720,680,860,1030,960,700,550,440,370,350,290,240,250,210,160,140,140,140,130,120,130,130,150,110,120,110,140,130,120,110,110,120,140,120,160,270,280,340,450,500,650,860,990,1070,880,670,690,580,550,610,760,950,1020,1030,1030,960,910,870,860,830,680,610,570,580,600,540,540,430,430,350,400,350,270,290,360,400,450,610,680,730,900,980,1340,1800,1760,1770,1780,1640,1130,980,940,960,1090,1360,1370,1160,670,710,550,840,840,710,920,960,930,1020,1120,1010,1000,900,790,760,750,690,620,690,690,740,700,670,600,550,450,290,180,110,40,40,30,50,0,0,0,200,50,40,10,0,10,40,40,10,110,100,130,140,190,180,140,60,220,170,180,240,300,300,290,320,310,260,270,260,280,310,290,260,190,160,220,290,370,380,400,430,370,390,260,240,250,240,290,350,370,360,360,400,380,360,340,390,330,370,410,400,410,430,550,480,620,800,740,720,690,680,620,620,620,600,610,550,600,610,580,560,510,510,440,480,470,450,410,420,440,430,440,470,500,510,550,570,660,610,630,660,580,650,630,560,500,650,800,970,890,930,870,810,640,700,700,700,630,660,620,600,560,490,500,470,450,400,380,360,330,410,460,480,500,530,530,510,450,410,490,580,560,640,670,720,710,720,780,750,790,820,790,810,810,830,750,740,790,820,860,880,860,860,870,850,840,790,760,760
0,0,0,0,0,0,0,0,0,0,0,0,0,0,0,0,0,0,0,0,0,0,0,0,0,0,0,0,0,0,0,0,0,0,0,0,0,0,0,0,0,0,0,0,0,0,0,0,0,0,0,0,0,0,0,0,0,0,0,0,0,0,0,0,0,0,0,0,0,0,0,0,0,10,30,80,0,10,10,80,230,110,0,0,10,110,190,280,270,270,370,410,270,160,90,280,440,290,380,480,450,150,290,420,570,210,230,140,180,260,370,230,240,400,460,610,650,500,400,410,400,660,830,790,1070,990,830,920,1010,1080,1250,1460,1440,1290,1020,900,710,700,920,1050,710,610,410,350,270,270,420,540,750,590,430,380,280,220,310,530,520,450,610,780,840,950,950,620,580,760,880,1030,1180,1300,1260,1150,1040,950,860,840,860,730,710,710,710,710,610,660,810,760,620,710,910,540,520,400,510,610,710,810,900,950,870,770,750,800,680,530,600,620,810,790,750,600,600,600,690,910,1120,1090,850,670,580,410,330,310,260,220,230,160,150,140,150,120,130,150,120,120,120,120,130,130,140,120,120,100,120,100,130,140,190,300,430,320,400,610,680,810,880,810,680,490,430,540,690,830,950,1030,990,980,950,900,850,820,680,600,530,550,580,540,520,460,400,370,310,390,420,260,270,400,480,420,500,570,750,730,890,1070,1750,1360,1410,1670,1730,1720,1600,1300,1060,830,900,900,790,740,580,520,560,640,700,900,790,900,1010,1120,1080,1020,920,980,920,810,730,730,740,720,730,700,660,570,500,390,270,150,30,20,30,30,0,0,0,0,0,20,20,20,10,0,0,10,20,80,90,120,120,120,110,60,160,250,250,310,250,250,260,280,310,290,260,260,190,190,330,320,290,180,160,180,270,340,390,410,410,390,380,300,310,300,310,560,590,580,530,410,450,400,390,370,420,370,340,310,320,350,400,420,470,580,770,750,790,730,690,620,600,600,610,580,540,540,520,550,530,530,510,440,430,440,430,410,440,400,430,400,400,440,430,520,550,600,580,610,600,600,530,600,550,550,680,830,930,990,900,770,710,610,680,720,670,650,590,570,560,540,500,480,470,420,370,360,340,360,420,460,480,500,560,500,440,410,450,520,570,630,630,640,670,640,710,740,760,760,800,760,780,770,760,710,760,820,840,850,910,830,850,850,860,860,810,800,830
0,0,0,0,0,0,0,0,0,0,0,0,0,0,0,0,0,0,0,0,0,0,0,0,0,0,0,0,0,0,0,0,0,0,0,0,0,0,0,0,0,0,0,0,0,0,0,0,0,0,0,0,0,0,0,0,0,0,0,0,0,0,0,0,0,0,0,0,0,0,0,0,0,30,30,0,0,10,10,100,230,220,10,0,50,100,280,290,150,250,280,360,300,180,140,300,450,550,420,480,600,390,280,480,570,550,260,290,170,140,240,240,430,450,540,590,680,770,700,690,580,760,790,1060,1070,830,800,910,1100,1230,1300,1380,1160,1070,1130,920,690,590,900,870,880,720,610,530,340,270,370,510,710,710,590,520,350,210,340,340,410,360,450,570,710,870,660,550,510,680,780,910,1110,1270,1180,1090,1100,990,880,870,850,710,790,1050,880,630,490,540,500,630,560,580,830,760,640,460,390,450,570,680,790,810,750,760,670,710,650,560,540,650,750,740,690,590,480,570,620,830,980,1040,790,580,440,350,300,270,280,250,200,190,160,150,120,110,110,140,130,110,110,110,120,120,150,150,110,120,110,100,90,110,130,220,300,250,310,420,460,630,680,700,580,500,460,510,700,800,910,1030,970,920,900,840,800,790,670,610,550,510,580,500,450,390,340,310,300,350,350,300,240,310,440,360,450,450,550,650,780,1000,1700,1380,1010,1440,1700,1670,1630,1490,1460,1340,920,760,680,740,600,550,610,480,700,920,670,790,1030,1090,1110,1060,1020,1250,1030,1010,750,750,730,680,650,680,630,610,480,350,210,150,0,10,0,40,0,0,0,0,0,70,30,30,20,70,20,0,20,20,30,70,110,90,100,70,130,220,250,320,290,360,330,390,330,230,220,180,160,160,310,380,330,190,150,190,230,290,410,490,550,410,400,380,380,370,370,550,530,520,490,430,430,420,380,420,460,380,380,300,310,340,440,550,670,770,750,700,670,670,650,640,660,670,690,690,630,620,580,560,490,510,490,450,450,490,460,440,490,430,440,510,400,390,420,490,490,540,530,570,560,540,480,550,470,520,630,750,860,900,860,820,700,560,630,670,680,660,610,590,540,510,510,460,430,400,390,340,340,410,430,440,420,460,500,420,400,380,420,510,580,660,630,590,600,650,740,750,760,730,730,760,800,750,710,690,760,800,820,830,840,850,780,800,790,830,770,800,820
0,0,0,0,0,0,0,0,0,0,0,0,0,0,0,0,0,0,0,0,0,0,0,0,0,0,0,0,0,0,0,0,0,0,0,0,0,0,0,0,0,0,0,0,0,0,0,0,0,0,0,0,0,0,0,0,0,0,0,0,0,0,0,0,0,0,0,0,0,0,0,0,0,0,20,0,30,10,10,30,150,250,40,0,50,50,100,130,120,140,200,260,330,180,260,230,350,620,450,540,720,550,210,370,530,640,570,490,340,170,180,260,270,380,480,600,710,830,830,1000,800,710,900,1130,1070,930,740,940,1090,970,1100,1170,940,970,1030,880,750,590,630,760,780,820,690,560,430,300,260,420,550,700,710,530,360,190,240,330,520,650,640,700,840,800,670,530,650,800,940,1050,1150,1170,1030,960,1030,970,800,770,710,710,890,1100,1170,810,610,570,500,540,440,460,680,650,700,550,390,440,480,630,720,770,620,660,760,550,540,490,590,680,680,680,550,500,500,700,790,910,910,970,780,590,500,340,300,280,260,220,190,160,150,140,140,120,160,120,100,120,120,120,110,110,90,120,130,120,140,130,110,120,130,180,220,200,210,330,400,470,510,550,510,410,430,490,610,750,900,950,960,900,870,850,850,740,680,620,590,520,530,510,440,380,270,400,320,350,280,230,210,300,370,360,390,390,570,680,790,990,1550,1300,770,1000,1610,1640,1580,1560,1480,1340,1470,1320,1260,1080,860,620,480,430,670,820,670,760,1000,1050,1020,1150,1150,1220,1070,1020,850,750,690,750,620,620,650,580,480,380,240,80,0,20,10,40,10,0,0,0,0,40,50,50,10,50,10,10,40,50,50,50,60,90,90,60,90,130,220,300,270,220,310,320,340,240,160,140,130,160,230,380,290,170,110,150,200,240,410,540,620,510,420,480,520,460,550,620,570,600,520,490,440,420,420,390,440,390,390,330,300,370,440,650,710,760,720,680,660,690,690,710,730,760,770,790,730,670,640,580,530,510,510,500,490,530,550,440,480,500,570,520,430,390,400,430,490,500,530,540,500,520,440,490,460,540,630,750,800,850,800,750,660,580,600,620,640,630,580,590,570,540,470,450,400,370,330,330,370,420,420,390,380,410,450,400,430,410,450,510,580,640,610,570,610,680,740,750,760,690,700,760,780,770,720,660,700,760,790,840,840,840,810,760,810,830,790,800,790
0,0,0,0,0,0,0,0,0,0,0,0,0,0,0,0,0,0,0,0,0,0,0,0,0,0,0,0,0,0,0,0,0,0,0,0,0,0,0,0,0,0,0,0,0,0,0,0,0,0,0,0,0,0,0,0,0,0,0,0,0,0,0,0,0,0,0,0,0,0,0,0,0,0,40,0,10,20,0,120,260,140,60,30,10,10,10,50,110,180,220,340,350,310,250,280,360,540,720,790,620,500,280,300,520,670,700,600,410,470,450,280,280,380,560,660,810,970,930,990,1120,970,950,1020,930,930,670,720,830,840,780,1020,880,820,910,980,770,600,570,710,690,790,920,640,480,330,230,310,450,550,700,510,320,190,280,490,550,680,870,790,680,610,480,570,630,790,890,1010,1060,1040,1000,880,880,980,900,790,740,830,970,1100,1150,950,700,860,700,740,580,470,500,540,630,520,370,390,550,720,710,670,730,530,580,520,450,690,800,820,680,690,680,490,520,600,740,860,870,890,750,650,450,330,260,240,240,190,200,150,170,150,120,130,160,110,110,110,110,140,130,110,160,130,110,120,90,130,100,120,110,180,170,150,140,180,270,320,360,320,450,390,360,450,520,660,820,940,970,900,880,860,790,730,660,610,630,570,480,440,460,350,390,410,300,280,220,220,180,210,260,290,350,470,500,560,640,740,1220,1410,760,850,1310,1580,1660,1580,1490,1460,1120,1390,1410,1310,1150,930,650,460,460,480,670,860,1000,1010,950,1040,1060,1200,1150,1120,930,1070,1050,800,580,520,620,560,450,290,170,100,20,10,30,0,20,0,0,0,0,0,50,60,10,10,70,110,90,50,70,60,40,80,80,80,40,80,110,160,230,130,280,300,300,150,140,120,120,120,130,210,180,140,140,160,180,220,280,360,630,790,580,610,570,540,600,710,580,640,590,510,480,430,450,430,490,550,430,290,320,360,490,620,650,670,690,660,720,720,780,810,810,830,830,830,790,720,630,580,640,550,560,570,590,610,560,520,470,580,610,520,510,470,390,420,420,450,470,490,470,420,550,580,600,670,700,760,750,810,770,690,640,580,550,590,580,620,580,570,580,530,440,430,400,340,310,380,400,380,370,340,360,400,400,400,430,490,540,570,580,600,570,560,580,640,720,740,760,660,660,700,790,730,670,640,720,710,780,840,830,750,750,680,780,810,790,720,730
0,0,0,0,0,0,0,0,0,0,0,0,0,0,0,0,0,0,0,0,0,0,0,0,0,0,0,0,0,0,0,0,0,0,0,0,0,0,0,0,0,0,0,0,0,0,0,0,0,0,0,0,0,0,0,0,0,0,0,0,0,0,0,0,0,0,0,0,0,0,0,0,0,0,0,0,10,40,60,100,270,250,230,50,50,40,90,190,170,220,210,370,370,440,370,340,410,460,710,840,730,550,450,320,370,420,680,630,440,560,660,490,260,470,470,610,740,870,880,900,930,1150,1160,940,910,870,870,790,670,660,690,980,890,720,920,980,820,660,520,580,700,820,910,730,590,430,250,240,360,480,610,530,400,170,230,420,460,610,760,610,570,400,550,570,710,880,960,1080,990,990,960,870,760,870,890,710,780,900,1010,1170,1050,850,860,910,810,760,660,580,400,400,560,620,400,370,530,740,720,530,670,520,440,450,560,860,880,810,780,740,610,560,480,540,670,730,760,850,580,570,460,270,250,240,200,180,180,170,150,140,140,120,120,120,120,100,120,120,110,120,120,120,120,90,80,90,130,130,100,110,90,110,110,120,90,150,240,200,290,380,300,390,480,620,790,940,970,900,850,880,790,710,610,620,590,520,420,420,350,350,450,350,300,250,210,200,170,160,180,360,400,410,520,470,520,600,800,1240,740,740,1070,1470,1190,1580,1430,1340,1070,1220,1330,1330,1040,930,820,640,450,440,680,880,1030,1030,940,1020,1020,1120,1180,1190,1060,960,820,690,610,440,540,530,420,310,200,80,30,0,10,0,20,0,0,0,0,0,50,70,80,60,30,130,130,70,50,60,30,50,70,40,50,70,50,80,180,220,270,260,240,130,100,100,100,110,140,170,140,160,140,150,200,280,300,400,510,920,800,860,680,700,840,840,560,540,510,520,480,450,450,470,490,460,420,360,300,410,500,550,530,630,660,650,740,750,840,920,940,950,930,940,840,760,670,660,630,640,630,630,650,650,600,520,460,560,600,600,590,560,480,410,390,390,410,440,420,440,530,610,610,680,710,690,770,810,730,650,600,550,500,570,530,570,550,560,560,520,430,420,370,320,350,360,360,340,330,360,370,370,350,380,470,480,560,580,550,570,540,560,640,630,700,730,740,720,610,680,750,680,630,650,720,760,820,840,800,720,660,650,740,760,740,750,680
0,0,0,0,0,0,0,0,0,0,0,0,0,0,0,0,0,0,0,0,0,0,0,0,0,0,0,0,0,0,0,0,0,0,0,0,0,0,0,0,0,0,0,0,0,0,0,0,0,0,0,0,0,0,0,0,0,0,0,0,0,0,0,0,0,0,0,0,0,0,0,0,0,0,0,30,20,20,30,100,210,230,200,40,50,80,70,150,230,210,290,300,290,390,530,370,430,480,610,770,750,740,410,410,430,560,630,770,530,630,690,570,270,400,640,700,610,640,640,760,890,1020,1140,1160,1140,1100,1110,1110,850,750,580,740,760,800,770,1020,950,810,700,420,550,780,770,690,620,480,360,230,260,420,540,500,250,170,200,370,550,670,660,470,380,520,770,850,870,810,940,1100,1030,1160,1170,1020,810,710,710,790,910,940,980,1150,1080,880,900,950,1060,940,940,700,610,450,380,520,360,410,580,650,690,570,460,390,500,710,900,970,890,800,740,710,630,490,410,500,510,650,720,810,710,550,340,260,240,200,220,190,160,160,180,120,140,130,130,120,110,130,150,130,120,120,110,120,120,90,120,110,90,100,110,70,90,110,80,160,260,250,220,100,180,250,230,410,510,650,820,980,960,910,850,840,750,690,570,520,560,450,430,400,310,300,210,260,220,230,170,140,130,100,120,170,350,370,370,380,420,490,710,780,600,630,760,960,890,1410,1430,1370,980,850,860,1090,1150,1010,790,590,510,370,620,890,1120,1020,920,1010,1170,1090,1140,1070,980,890,770,630,600,460,420,490,430,260,140,70,40,20,20,0,10,0,0,0,0,0,70,100,90,70,40,120,120,160,70,60,50,60,70,60,40,50,20,60,70,110,170,200,90,130,80,90,70,80,100,110,120,90,140,150,220,250,320,470,620,950,1180,1130,1060,910,780,630,540,490,490,470,440,430,410,430,410,400,370,340,300,320,400,460,470,570,670,670,710,780,870,940,970,1010,980,990,900,830,810,770,740,690,650,710,700,580,570,510,550,620,640,690,650,650,490,450,390,370,360,360,380,480,510,540,620,670,660,640,700,610,660,650,580,520,460,520,490,510,500,520,530,490,400,390,360,340,360,330,300,370,380,360,430,450,450,450,500,520,560,570,510,570,530,580,650,680,680,690,720,720,650,610,670,620,680,690,730,720,780,820,770,690,640,670,700,670,650,690,600
0,0,0,0,0,0,0,0,0,0,0,0,0,0,0,0,0,0,0,0,0,0,0,0,0,0,0,0,0,0,0,0,0,0,0,0,0,0,0,0,0,0,0,0,0,0,0,0,0,0,0,0,0,0,0,0,0,0,0,0,0,0,0,0,0,0,0,0,0,0,0,0,0,0,0,80,20,40,10,170,190,140,70,50,60,110,180,110,120,150,190,210,300,410,480,570,440,610,720,750,590,710,440,520,530,450,620,920,720,600,670,750,490,310,420,440,470,550,720,960,890,1080,1240,1220,1300,1390,1430,1340,1070,790,530,630,700,910,570,900,810,770,770,560,390,660,700,670,670,630,440,270,200,330,460,510,210,160,170,260,510,740,540,420,460,590,630,680,820,1020,1080,990,1010,1250,1100,1000,900,770,710,770,900,980,960,1120,990,870,940,960,1050,1210,1210,1030,780,710,580,400,360,340,440,600,550,450,410,670,780,870,1020,990,860,770,730,640,610,510,480,400,580,620,700,720,620,400,350,270,250,200,170,170,170,160,160,140,140,140,120,120,130,130,150,120,120,120,120,120,120,120,120,110,90,80,100,100,130,190,290,430,500,430,290,90,130,230,310,430,570,700,900,1020,970,870,870,840,750,660,550,500,520,440,440,390,360,250,230,190,180,190,130,70,110,70,90,150,270,330,290,310,330,380,580,580,600,460,260,690,630,830,1420,1340,1320,1210,780,640,810,910,660,530,340,400,780,1070,1210,1050,970,1000,1130,1050,1010,1150,1060,840,690,570,550,470,340,340,370,270,110,40,10,10,10,10,0,0,0,0,0,0,0,80,50,50,40,130,120,120,50,40,60,40,30,50,10,30,20,50,50,70,70,120,130,130,80,70,60,90,100,110,120,110,120,210,250,240,320,410,540,690,940,1190,1140,940,850,680,540,500,470,480,460,410,380,380,350,330,330,340,300,290,340,370,550,590,610,590,640,750,770,870,940,850,830,810,850,940,930,840,840,790,760,730,710,580,540,530,570,640,670,700,690,650,600,490,420,530,440,360,380,410,410,470,530,610,610,600,610,590,630,620,670,530,450,420,450,410,440,500,500,440,380,370,330,290,320,330,350,410,440,460,480,480,500,500,490,510,530,490,470,520,540,610,620,670,650,660,660,670,630,560,620,600,670,690,680,710,750,790,750,660,560,630,590,590,570,580,540
0,0,0,0,0,0,0,0,0,0,0,0,0,0,0,0,0,0,0,0,0,0,0,0,0,0,0,0,0,0,0,0,0,0,0,0,0,0,0,0,0,0,0,0,0,0,0,0,0,0,0,0,0,0,0,0,0,0,0,0,0,0,0,0,0,0,0,0,0,0,0,0,0,0,0,70,40,130,100,130,200,180,90,70,50,200,280,280,110,110,150,210,270,370,520,600,630,590,740,700,540,610,540,610,570,660,680,890,990,790,730,770,520,520,510,640,640,720,570,810,1060,1130,1310,1420,1490,1610,1520,1310,1180,830,530,500,790,860,680,770,930,740,560,570,470,650,740,590,610,650,570,400,220,200,410,530,290,220,160,200,490,710,450,310,390,510,780,700,820,990,1060,960,1020,1160,1130,1140,1050,860,850,850,970,1020,1090,1050,960,850,860,880,870,950,1130,1140,1040,840,690,630,430,340,370,520,550,350,470,700,1070,890,940,960,870,740,640,600,590,560,530,370,460,600,670,640,590,400,310,270,230,210,180,180,170,160,150,150,130,150,130,130,110,140,150,120,110,110,120,110,100,110,90,110,130,100,90,140,210,330,470,640,640,510,410,180,100,260,410,500,630,760,930,1050,960,880,860,810,690,620,480,480,480,390,350,410,340,300,230,180,140,180,130,140,90,60,70,180,250,260,250,320,280,340,270,330,510,380,340,610,590,580,1040,1360,1320,1340,1180,720,530,810,450,270,340,590,840,1180,1210,1070,920,830,990,980,1060,1110,1080,980,890,830,700,530,430,310,200,220,110,30,30,10,0,10,0,10,0,0,0,0,0,0,0,20,40,100,80,60,70,30,20,30,30,0,100,90,30,0,0,60,90,60,80,80,160,130,90,40,80,120,110,160,160,240,310,340,280,440,740,650,900,1050,1130,1030,940,770,600,510,460,520,510,470,420,390,340,330,280,280,280,270,340,370,490,490,570,470,480,620,720,760,850,750,720,670,760,950,980,890,820,770,780,750,680,640,560,590,540,600,740,710,710,650,590,560,570,600,510,380,350,360,400,420,480,570,630,540,580,550,580,680,620,650,490,440,390,450,480,450,430,420,350,350,320,280,290,310,370,400,400,410,430,430,480,480,470,490,500,470,510,570,550,630,630,640,610,660,640,660,590,560,540,660,680,660,680,730,730,770,720,640,550,560,570,500,500,490,450
0,0,0,0,0,0,0,0,0,0,0,0,0,0,0,0,0,0,0,0,0,0,0,0,0,0,0,0,0,0,0,0,0,0,0,0,0,0,0,0,0,0,0,0,0,0,0,0,0,0,0,0,0,0,0,0,0,0,0,0,0,0,0,0,0,0,0,0,0,0,0,0,0,0,0,0,70,210,230,120,140,140,90,170,210,210,410,370,300,140,190,300,420,470,510,530,620,670,620,610,510,620,540,530,580,700,760,970,1140,1070,930,920,800,630,560,700,1000,1070,830,710,890,950,1290,1480,1410,1590,1510,1090,790,700,510,450,640,750,600,690,950,1080,570,570,450,350,680,640,490,600,670,520,380,170,290,450,380,170,160,200,470,590,290,430,390,560,710,790,920,960,820,840,1010,1130,1140,1160,1110,940,860,830,910,990,1020,930,860,850,840,760,820,760,910,950,1000,890,800,660,470,390,340,450,510,360,550,760,920,910,740,850,870,760,640,530,620,610,480,400,440,470,630,600,370,350,280,240,220,200,180,170,160,150,180,180,130,150,140,140,130,120,130,120,140,130,110,110,110,120,120,120,120,130,160,210,330,530,660,880,790,630,430,210,100,230,420,560,720,880,970,1000,900,910,890,810,770,620,480,440,440,320,330,400,370,280,210,180,130,120,100,90,90,80,90,230,200,240,210,250,210,360,180,120,480,360,620,620,200,410,490,840,1340,1010,1100,980,550,480,630,250,480,630,690,940,1110,1190,1020,830,870,870,930,1100,1010,950,870,810,780,590,460,320,280,190,130,70,60,20,0,20,10,10,0,0,0,0,0,10,10,30,60,30,40,20,20,20,10,0,30,60,130,130,100,130,100,70,40,20,20,150,180,170,140,90,100,100,110,140,160,210,270,290,270,360,510,680,880,930,1010,940,840,830,770,500,430,440,400,390,360,340,300,330,320,270,280,270,310,350,370,410,380,410,470,540,560,600,780,730,600,580,720,910,970,910,830,770,740,720,660,630,620,570,550,650,770,810,770,630,600,670,700,640,560,440,430,380,360,390,490,540,590,520,500,500,630,600,590,550,530,530,350,400,420,400,370,350,310,310,310,300,340,350,350,360,400,380,370,410,450,450,450,450,460,510,550,590,590,610,650,610,600,640,620,650,560,530,620,630,630,640,700,710,730,730,690,640,590,480,450,420,420,430,470
0,0,0,0,0,0,0,0,0,0,0,0,0,0,0,0,0,0,0,0,0,0,0,0,0,0,0,0,0,0,0,0,0,0,0,0,0,0,0,0,0,0,0,0,0,0,0,0,0,0,0,0,0,0,0,0,0,0,0,0,0,0,0,0,0,0,0,0,0,0,0,0,0,0,0,0,100,160,250,200,150,150,80,160,320,400,410,450,350,290,180,300,400,480,430,540,620,640,570,480,510,490,490,530,560,750,810,950,1080,1160,1180,760,690,540,810,740,910,920,1200,950,1020,1140,1310,1420,1320,1420,1510,1260,1070,800,470,340,440,590,500,600,740,990,860,680,590,330,600,530,460,450,600,570,530,210,220,400,430,190,160,250,420,550,350,390,540,710,650,760,860,790,780,810,840,980,1130,1280,1200,950,870,890,1000,1020,1140,1050,900,880,890,860,720,690,750,800,810,880,630,560,450,360,330,390,500,340,470,600,700,770,580,770,810,750,630,520,600,680,660,460,340,450,510,460,310,280,250,230,190,180,160,180,150,160,150,160,160,140,120,140,120,130,130,120,90,100,110,130,100,120,90,120,120,170,260,250,380,660,880,980,810,660,490,300,80,240,390,560,780,920,900,880,990,930,880,820,710,580,480,520,430,350,310,300,350,360,280,220,210,200,110,80,60,100,90,90,260,300,210,180,190,200,140,220,320,430,690,650,290,260,30,410,980,1160,740,930,730,410,490,210,360,760,880,1110,1290,1230,1100,950,850,780,950,1070,1010,970,930,670,680,510,430,380,310,180,110,70,130,20,20,20,30,10,0,0,0,0,0,0,20,40,60,20,40,30,0,10,10,10,40,70,100,180,190,150,140,80,20,20,50,130,160,170,170,200,130,90,100,90,130,200,190,240,250,330,360,530,730,830,920,950,840,740,740,530,390,360,370,390,370,450,330,320,360,350,320,260,230,260,300,400,370,350,420,510,480,560,700,670,560,570,680,820,880,920,810,750,700,700,670,640,600,600,600,730,880,890,840,710,670,720,720,660,590,500,500,460,370,390,490,510,550,500,420,490,570,640,630,560,460,420,360,430,370,300,280,320,300,300,280,340,360,340,340,320,360,350,350,370,400,400,430,440,500,560,600,600,610,630,610,580,570,600,620,620,520,570,590,600,650,670,690,670,700,740,720,670,630,520,420,450,440,510,540
0,0,0,0,0,0,0,0,0,0,0,0,0,0,0,0,0,0,0,0,0,0,0,0,0,0,0,0,0,0,0,0,0,0,0,0,0,0,0,0,0,0,0,0,0,0,0,0,0,0,0,0,0,0,0,0,0,0,0,0,0,0,0,0,0,0,0,0,0,0,0,0,0,0,0,0,140,250,250,270,230,220,120,180,270,380,400,500,390,420,260,310,450,500,380,530,560,520,440,370,350,380,440,520,610,600,720,810,900,960,1110,1070,830,730,820,1040,1060,1150,1240,1130,1100,1170,1370,1320,1220,1250,1420,1220,850,770,550,420,340,450,450,460,650,860,940,570,420,330,320,320,490,320,520,640,520,390,160,220,340,210,150,260,470,450,370,560,800,800,760,730,680,560,630,730,830,920,1110,1290,1280,1140,860,1010,1200,1260,1220,1100,1030,900,850,770,660,630,600,590,690,830,890,710,430,400,340,330,380,330,460,510,570,580,520,670,750,620,580,510,640,670,650,600,430,360,440,390,290,250,230,220,180,170,180,160,170,170,200,170,160,140,140,130,130,150,130,110,110,120,140,140,110,100,100,110,180,200,290,320,520,790,1000,980,790,640,490,310,110,300,390,540,750,860,830,950,1020,930,860,810,710,550,480,490,410,290,250,230,310,340,300,300,210,180,140,60,30,80,80,180,210,230,220,170,140,150,160,190,210,450,480,380,190,10,10,20,490,760,890,620,760,490,390,230,210,610,1020,1060,1140,1250,1050,900,880,710,810,890,1010,880,720,610,740,500,430,300,230,150,140,80,50,50,10,20,0,10,0,0,0,0,0,0,0,0,110,10,30,20,10,20,20,20,10,40,90,110,160,160,120,40,30,60,80,100,130,160,170,180,220,100,130,120,110,140,170,200,220,360,430,770,770,760,810,820,840,660,630,560,390,340,320,330,360,510,360,370,410,350,340,280,220,230,290,310,320,320,380,420,420,590,570,590,510,610,650,790,930,870,780,740,780,700,650,650,630,620,630,730,900,960,920,740,790,710,670,660,550,470,440,410,370,360,390,450,440,430,410,500,560,590,610,560,400,440,360,330,350,280,310,270,270,270,260,300,330,330,370,330,380,440,440,460,460,440,490,520,550,550,590,590,600,620,580,530,610,600,610,540,490,530,530,640,610,650,670,650,650,710,710,690,610,520,470,440,580,620,630
0,0,0,0,0,0,0,0,0,0,0,0,0,0,0,0,0,0,0,0,0,0,0,0,0,0,0,0,0,0,0,0,0,0,0,0,0,0,0,0,0,0,0,0,0,0,0,0,0,0,0,0,0,0,0,0,0,0,0,0,0,0,0,0,0,0,0,0,0,0,0,0,0,0,0,0,110,190,280,310,360,210,140,120,160,250,270,470,480,410,330,390,510,530,330,460,510,320,290,300,480,470,390,410,560,630,690,700,880,990,1100,1150,830,780,900,960,990,930,910,930,1080,1170,1370,1270,1070,1280,1400,1270,960,640,600,590,340,430,490,350,530,570,870,830,670,500,470,250,300,240,480,580,590,490,380,180,200,160,170,310,580,390,300,460,670,750,570,400,520,770,760,650,700,840,1070,1340,1140,1040,1010,1210,1340,1280,1160,1200,1080,990,870,780,760,740,810,680,500,650,750,710,460,340,420,360,340,310,330,340,410,470,450,490,570,560,460,550,650,740,700,480,390,310,360,300,270,220,230,180,180,170,170,160,150,170,170,160,130,160,140,190,180,140,120,130,120,130,170,110,110,110,100,110,200,220,320,450,650,880,1060,940,800,630,450,300,80,250,390,540,700,730,810,940,1020,980,930,810,670,550,470,470,380,260,220,200,190,280,300,310,210,170,130,60,0,60,60,120,150,150,120,150,170,100,140,140,230,320,310,220,150,260,10,10,180,420,940,840,450,410,290,250,160,710,790,970,1250,1250,1020,960,840,720,700,790,930,990,790,600,530,490,390,300,290,210,140,80,80,60,10,10,10,20,0,0,0,0,0,0,0,0,0,0,0,0,0,0,0,0,0,100,30,10,100,80,190,10,20,40,60,110,200,160,170,200,220,260,110,140,140,180,130,140,210,330,490,830,800,720,730,700,690,630,540,530,470,310,290,310,290,420,410,390,360,340,260,290,250,220,240,260,290,340,330,390,390,420,490,480,420,550,710,880,960,930,910,820,800,810,710,630,600,600,620,690,860,960,990,980,890,650,630,590,500,540,520,470,390,310,330,370,380,380,360,410,450,540,480,480,350,320,330,330,300,280,340,370,320,250,270,300,310,360,410,410,400,380,410,450,440,470,500,520,550,600,610,560,560,530,510,500,580,600,610,520,460,540,580,610,600,590,630,590,640,670,700,690,600,480,420,500,600,660,710
0,0,0,0,0,0,0,0,0,0,0,0,0,0,0,0,0,0,0,0,0,0,0,0,0,0,0,0,0,0,0,0,0,0,0,0,0,0,0,0,0,0,0,0,0,0,0,0,0,0,0,0,0,0,0,0,0,0,0,0,0,0,0,0,0,0,0,0,0,0,0,0,0,0,0,0,110,120,210,240,360,370,220,220,150,190,200,230,420,500,510,450,440,510,360,350,350,320,410,460,520,480,530,520,540,490,620,730,860,980,980,1120,1140,800,990,1060,800,830,910,1080,1140,1220,1430,1210,970,950,1080,1100,860,720,530,410,340,340,500,310,430,560,800,950,820,710,670,490,250,210,430,500,530,450,420,250,170,160,170,290,450,490,260,360,540,530,410,550,580,770,1030,870,840,910,1070,1330,1190,1160,1130,1370,1360,1260,1120,1030,1060,980,900,880,810,840,760,620,530,480,490,580,370,460,490,510,350,310,330,300,280,340,400,400,380,360,410,580,720,760,740,640,490,310,260,290,240,210,200,180,170,180,180,200,160,190,170,160,140,140,160,170,160,130,120,120,130,150,170,120,110,90,100,120,170,260,330,450,640,920,1070,910,790,610,450,290,80,110,320,470,530,630,800,900,970,940,890,760,650,510,510,440,330,280,210,230,180,280,290,280,260,150,60,0,30,40,20,40,50,80,90,100,110,140,150,110,200,240,220,200,140,120,110,50,100,190,390,840,870,520,340,180,360,660,740,1030,1270,1370,1060,960,820,740,620,830,1040,1080,840,680,520,430,370,310,240,170,140,120,100,50,110,0,10,10,0,0,0,0,0,0,0,0,0,0,0,0,0,0,0,0,0,0,0,0,0,60,140,20,10,50,120,120,130,120,140,210,210,310,160,130,110,170,150,160,190,260,370,730,720,660,590,600,610,580,470,460,440,300,280,280,290,300,360,370,300,320,250,230,250,230,230,260,260,290,320,370,470,430,490,390,470,650,660,810,840,910,920,860,840,810,720,670,620,600,700,780,880,990,960,900,930,740,640,570,570,600,560,490,450,410,340,320,330,330,340,310,380,400,380,370,380,290,310,290,280,310,390,370,350,270,260,300,330,390,430,440,450,440,480,470,460,480,520,590,550,610,620,490,480,530,480,510,550,580,570,510,460,520,550,550,570,590,590,580,610,680,680,640,550,470,430,520,610,670,720
0,0,0,0,0,0,0,0,0,0,0,0,0,0,0,0,0,0,0,0,0,0,0,0,0,0,0,0,0,0,0,0,0,0,0,0,0,0,0,0,0,0,0,0,0,0,0,0,0,0,0,0,0,0,0,0,0,0,0,0,0,0,0,0,0,0,0,0,0,0,0,0,0,0,0,0,0,180,200,170,250,390,350,300,230,260,230,360,350,510,550,450,340,440,400,200,240,320,470,650,530,470,540,500,550,620,730,870,870,710,870,940,1130,1020,780,900,720,770,840,960,1070,1260,1450,1320,1180,760,910,930,720,530,540,550,340,360,450,550,320,460,610,650,650,800,650,500,560,260,190,450,370,270,260,240,140,240,370,190,230,230,220,300,310,310,400,630,860,990,960,1090,1110,1050,1150,1390,1250,1190,1250,1400,1350,1220,1100,960,920,950,880,820,870,920,880,810,790,740,580,400,410,410,590,660,510,500,510,340,340,300,290,370,330,430,600,510,690,750,570,520,490,290,260,260,230,200,190,200,180,170,190,210,180,150,160,150,140,130,150,140,130,130,140,110,120,220,170,110,110,130,130,150,180,270,340,440,600,900,1080,930,830,640,480,300,240,110,90,290,360,520,690,860,970,990,890,760,620,520,530,400,340,270,220,210,160,260,150,110,50,40,50,0,0,30,60,40,40,50,60,90,50,60,50,70,130,140,110,80,60,20,60,70,60,70,90,280,670,540,220,110,480,520,830,1050,1090,1220,1000,910,900,760,640,630,830,1080,1020,890,770,540,440,390,280,220,180,120,80,70,30,10,0,10,20,10,0,0,0,0,0,0,0,0,0,0,0,0,0,0,0,0,0,0,0,0,0,20,30,30,100,130,140,120,170,210,200,270,250,180,140,140,180,180,180,250,370,550,560,540,510,550,620,620,500,390,360,280,270,250,270,270,280,280,270,270,230,200,210,190,240,250,280,260,230,300,490,600,460,340,390,560,600,660,790,810,860,940,920,840,770,660,680,650,710,760,880,930,980,950,840,740,670,610,650,600,530,480,430,490,430,380,430,490,440,370,310,310,340,350,310,370,380,350,390,370,390,360,320,300,260,330,410,420,440,460,520,480,490,490,480,490,500,540,570,610,610,580,580,490,480,510,560,560,540,520,470,480,510,540,580,580,560,560,590,590,620,580,540,450,440,550,630,690,710
0,0,0,0,0,0,0,0,0,0,0,0,0,0,0,0,0,0,0,0,0,0,0,0,0,0,0,0,0,0,0,0,0,0,0,0,0,0,0,0,0,0,0,0,0,0,0,0,0,0,0,0,0,0,0,0,0,0,0,0,0,0,0,0,0,0,0,0,0,0,0,0,0,0,0,0,0,140,170,170,200,310,270,350,380,290,280,480,470,510,530,390,260,330,250,210,260,470,560,530,650,580,570,490,700,620,710,790,560,790,760,790,1010,880,820,770,770,810,1070,1080,1050,1260,1250,1160,1100,880,720,980,620,570,480,440,330,220,370,510,330,340,510,430,540,830,680,430,350,390,160,430,310,150,160,130,150,200,590,460,350,310,390,370,320,520,490,610,780,1100,960,910,910,1020,1310,1380,1330,1160,1310,1350,1220,1240,1040,970,870,780,840,830,710,840,910,910,950,840,680,520,370,420,600,750,660,610,510,500,420,330,270,270,310,290,430,590,660,660,550,460,360,300,250,240,220,200,200,190,190,190,200,180,160,140,150,140,150,140,130,140,140,130,140,140,130,180,140,130,140,140,150,170,200,290,400,530,600,950,1090,940,890,640,480,350,310,220,90,200,310,420,690,820,900,940,900,750,600,530,500,410,330,270,200,200,180,150,80,120,70,40,30,30,30,30,0,60,0,0,80,30,40,10,50,40,80,90,30,30,20,10,20,70,30,30,30,90,280,440,110,280,310,590,890,900,960,980,950,1010,960,780,670,580,760,760,940,800,720,550,450,360,250,150,130,130,130,80,50,10,10,20,30,0,0,0,0,0,0,0,0,0,0,0,0,0,0,0,0,0,0,0,0,0,0,0,20,30,80,110,130,110,160,130,190,220,260,220,170,190,180,160,230,250,280,370,350,580,530,490,550,600,470,340,320,280,260,280,220,250,280,280,260,240,220,200,210,190,180,190,230,260,230,280,410,430,400,350,420,620,590,700,850,760,790,910,880,890,750,780,700,700,800,790,930,970,920,880,910,790,680,650,670,620,560,450,450,530,460,480,500,590,520,440,350,340,410,430,410,520,460,380,410,420,390,350,280,300,250,340,440,440,440,460,470,480,510,490,520,510,520,540,590,630,600,580,580,560,560,480,530,530,540,450,430,510,540,560,530,520,510,530,550,530,550,530,470,380,430,520,630,670,650
0,0,0,0,0,0,0,0,0,0,0,0,0,0,0,0,0,0,0,0,0,0,0,0,0,0,0,0,0,0,0,0,0,0,0,0,0,0,0,0,0,0,0,0,0,0,0,0,0,0,0,0,0,0,0,0,0,0,0,0,0,0,0,0,0,0,0,0,0,0,0,0,0,0,0,0,0,120,160,260,140,140,210,280,380,320,320,580,470,460,530,420,290,230,160,250,330,400,550,620,760,600,570,640,690,620,650,660,530,580,740,980,1000,670,650,670,830,880,920,1090,1150,1120,1220,1140,940,710,620,780,680,490,430,330,300,270,260,450,340,240,530,370,420,670,800,480,390,140,230,240,120,150,160,260,190,250,630,780,680,460,400,550,700,770,700,740,920,940,820,850,880,960,1190,1280,1200,1010,1140,1270,1200,1120,1010,810,820,780,660,770,650,690,780,720,860,920,770,590,430,400,540,740,940,770,600,640,520,470,330,290,280,270,280,420,660,660,530,570,510,310,250,240,210,210,200,190,190,200,190,180,170,180,150,150,160,160,150,150,140,130,140,130,160,120,130,130,140,160,150,210,260,290,420,540,790,1050,1120,990,870,630,490,460,430,340,270,100,240,360,500,730,870,910,890,830,650,510,480,370,330,260,240,190,150,120,100,90,60,100,100,70,50,70,0,0,0,30,30,0,30,60,40,50,10,20,30,40,40,0,10,20,30,0,0,30,90,300,60,270,530,800,750,850,880,880,850,820,870,810,670,580,590,760,760,780,660,670,470,380,290,110,90,80,90,40,90,70,0,20,30,20,0,0,0,0,0,50,0,0,0,0,0,0,0,0,0,0,0,0,0,0,0,0,0,0,50,40,30,120,140,130,150,210,210,250,210,170,190,180,210,210,240,210,220,400,580,430,470,520,470,390,320,330,300,240,240,440,240,230,250,210,220,200,200,180,190,180,180,210,210,240,290,340,360,330,510,750,790,750,730,740,720,760,800,760,790,820,750,810,870,930,920,960,880,800,860,900,820,760,710,660,640,530,510,500,600,580,670,690,610,530,430,410,480,580,480,600,490,430,430,410,360,310,280,270,330,390,430,460,470,480,510,520,490,480,510,530,550,550,590,620,610,620,610,590,560,540,440,510,480,420,490,500,470,500,480,430,430,450,480,460,460,430,380,430,520,600,660,700,640
0,0,0,0,0,0,0,0,0,0,0,0,0,0,0,0,0,0,0,0,0,0,0,0,0,0,0,0,0,0,0,0,0,0,0,0,0,0,0,0,0,0,0,0,0,0,0,0,0,0,0,0,0,0,0,0,0,0,0,0,0,0,0,0,0,0,0,0,0,0,0,0,0,0,0,0,0,80,130,200,100,110,250,320,380,360,360,530,440,350,490,460,460,260,150,200,300,330,400,560,700,680,680,580,560,620,580,440,630,700,800,870,840,640,640,830,1020,1090,980,1120,960,860,1030,980,940,880,650,610,870,630,550,540,360,230,200,340,430,180,450,290,320,570,610,440,380,240,110,110,110,210,380,270,310,500,690,830,760,500,640,660,630,820,860,860,840,820,720,710,830,1000,1220,1180,1080,930,1050,1210,1130,1160,1040,990,910,870,790,630,620,630,620,640,680,740,740,640,380,510,580,730,1100,1080,810,810,630,560,460,440,460,470,280,300,420,560,480,440,370,300,250,220,210,200,210,190,190,210,200,180,170,170,160,140,150,150,130,160,170,120,130,130,120,120,140,130,120,150,230,230,280,340,470,620,840,1130,1140,1080,920,700,680,680,590,490,380,240,110,330,450,680,860,930,950,810,620,510,490,400,350,280,190,210,190,120,70,60,130,50,60,40,80,70,50,50,10,0,30,50,20,120,130,120,90,40,90,100,60,80,110,140,110,40,0,0,0,80,10,210,550,690,710,720,790,810,760,770,760,750,740,620,550,620,770,790,650,600,550,410,270,160,60,20,30,50,10,40,0,0,20,30,0,10,0,0,0,10,0,0,0,0,0,0,0,0,0,0,0,0,0,0,0,0,0,0,20,10,20,30,50,90,160,160,210,280,220,200,210,230,190,320,270,140,170,320,600,480,400,430,410,430,320,370,270,250,230,320,230,210,240,240,190,190,190,170,170,190,140,170,280,290,300,260,300,390,560,710,690,720,720,770,730,670,720,750,810,860,950,820,900,900,960,940,840,780,780,860,890,900,850,740,680,640,580,560,680,660,820,820,730,580,550,510,570,660,540,560,470,460,450,380,340,300,240,310,350,400,420,430,460,460,480,520,480,480,480,510,530,550,560,600,590,600,590,580,540,520,470,460,460,460,450,390,430,440,360,380,400,370,340,390,400,380,450,530,600,670,700,660,590
0,0,0,0,0,0,0,0,0,0,0,0,0,0,0,0,0,0,0,0,0,0,0,0,0,0,0,0,0,0,0,0,0,0,0,0,0,0,0,0,0,0,0,0,0,0,0,0,0,0,0,0,0,0,0,0,0,0,0,0,0,0,0,0,0,0,0,0,0,0,0,0,0,0,0,0,0,40,110,140,90,120,270,360,340,350,380,480,340,280,340,460,430,280,150,210,320,510,410,570,700,490,420,520,570,610,520,420,480,600,640,770,830,560,720,860,1020,1070,1090,1030,810,710,870,860,790,710,620,540,820,560,470,440,500,420,170,190,360,170,220,300,240,520,590,330,360,220,110,110,370,440,540,450,430,410,580,730,850,620,560,650,780,770,730,650,670,740,600,680,910,1030,1150,1020,980,1000,1070,1210,1060,1150,1080,1120,1040,980,820,710,590,750,560,550,590,540,520,460,440,460,620,780,1010,1260,1140,970,760,760,710,670,600,530,360,250,260,350,340,320,320,260,220,220,210,200,200,190,200,220,170,150,170,180,170,160,150,170,150,160,140,140,140,130,170,140,130,130,150,140,250,240,290,350,480,660,950,1180,1200,1140,970,880,850,780,690,600,450,270,70,310,410,690,830,920,900,790,630,520,500,410,370,210,240,450,440,160,150,50,50,50,50,60,70,130,70,50,60,50,10,50,70,140,140,190,70,90,180,180,170,170,180,260,190,120,50,0,10,20,60,120,430,670,590,670,680,750,610,720,710,710,750,600,500,530,880,910,730,590,560,440,280,190,70,50,20,30,20,40,10,0,40,20,10,0,0,0,20,30,30,20,20,30,0,0,0,0,0,0,0,0,0,0,0,0,0,0,20,30,0,0,50,40,120,170,180,250,230,170,190,220,260,380,230,170,160,210,340,510,440,360,380,380,350,330,290,240,220,270,250,270,250,210,210,200,200,200,190,170,160,180,200,200,240,250,420,490,580,630,710,770,690,730,700,640,680,710,720,890,960,820,890,940,900,840,780,770,730,790,920,930,940,830,730,700,650,640,710,800,870,880,790,670,610,550,650,700,660,550,460,430,420,350,300,290,270,330,360,420,410,440,430,450,410,460,470,440,420,470,470,520,530,580,590,550,590,640,490,480,440,420,400,440,340,350,390,380,400,490,450,430,420,400,430,500,530,590,670,700,690,630,580
0,0,0,0,0,0,0,0,0,0,0,0,0,0,0,0,0,0,0,0,0,0,0,0,0,0,0,0,0,0,0,0,0,0,0,0,0,0,0,0,0,0,0,0,0,0,0,0,0,0,0,0,0,0,0,0,0,0,0,0,0,0,0,0,0,0,0,0,0,0,0,0,0,0,0,0,0,40,90,50,110,100,140,240,250,290,430,280,320,230,350,430,480,310,130,230,380,480,700,700,690,440,360,430,530,590,530,410,570,610,680,840,770,480,650,810,940,810,1060,920,680,680,820,900,700,650,500,560,740,590,700,610,410,320,330,210,200,160,140,120,180,330,340,250,190,180,110,130,340,600,710,590,470,470,510,640,780,740,670,680,700,730,490,470,490,620,620,730,870,1060,1100,940,880,990,1040,1170,1090,1050,1060,1080,1070,960,870,670,720,770,590,490,480,470,450,480,550,460,610,740,1010,1280,1150,960,900,790,590,630,550,440,300,260,250,240,260,240,240,220,240,240,270,200,190,210,200,230,230,180,170,190,150,160,180,150,160,130,130,130,130,150,170,150,130,120,200,210,250,310,340,390,560,690,990,1250,1250,1150,1050,1050,990,920,790,610,460,270,100,300,480,650,800,940,930,750,520,550,510,430,380,270,270,320,270,160,120,50,30,50,50,40,130,170,150,110,90,40,50,100,150,280,260,150,130,360,310,260,380,310,250,450,340,230,120,70,10,0,10,60,370,670,550,580,660,670,590,590,640,670,710,670,570,440,480,710,690,540,500,430,270,70,160,150,130,90,20,40,10,40,0,0,0,0,0,10,20,10,10,0,10,0,0,30,0,0,0,0,0,0,0,0,0,0,0,10,30,20,10,0,20,30,120,160,170,200,200,190,210,250,340,270,160,120,120,160,250,380,590,430,360,340,330,310,280,270,260,270,210,250,260,220,220,230,210,250,220,240,290,190,160,230,230,260,290,370,400,480,660,690,650,740,710,630,630,630,690,780,770,810,730,830,810,760,750,720,690,720,810,960,940,890,800,740,650,630,700,780,860,860,780,690,620,630,690,700,640,520,440,360,370,330,320,260,290,350,370,380,420,420,380,380,400,430,420,440,460,460,460,480,500,530,530,520,530,520,480,450,390,370,350,380,370,430,400,430,450,530,560,550,520,530,500,520,610,700,710,700,660,600,560
0,0,0,0,0,0,0,0,0,0,0,0,0,0,0,0,0,0,0,0,0,0,0,0,0,0,0,0,0,0,0,0,0,0,0,0,0,0,0,0,0,0,0,0,0,0,0,0,0,0,0,0,0,0,0,0,0,0,0,0,0,0,0,0,0,0,0,0,0,0,0,0,0,0,0,0,0,110,90,140,180,130,110,160,240,330,460,270,180,260,360,470,420,280,130,260,370,560,680,560,590,460,270,490,390,580,570,440,480,530,650,820,810,480,560,650,740,760,930,940,730,640,680,940,760,700,510,500,680,670,790,800,490,400,550,360,190,420,350,240,120,160,160,80,90,110,130,410,320,470,730,580,630,580,630,760,740,780,790,770,630,670,490,710,850,750,700,760,820,1090,1010,760,880,960,980,980,1080,930,970,930,1040,920,840,840,970,780,600,520,560,640,500,650,650,480,600,780,1100,1230,1160,950,750,710,670,510,440,350,300,400,380,280,250,240,240,280,240,210,220,220,200,180,190,200,170,180,170,160,170,190,160,150,140,150,140,150,150,190,180,150,150,120,170,220,330,310,410,430,580,720,1020,1250,1250,1140,1100,1080,1020,900,750,580,410,250,170,330,500,630,800,900,880,690,510,620,550,460,430,330,270,200,210,140,80,40,50,80,40,100,190,200,240,70,130,90,130,200,190,300,370,320,500,810,530,460,470,410,350,390,330,320,210,240,60,20,0,10,130,450,500,390,620,590,430,750,770,680,630,690,600,550,380,500,620,540,440,410,230,130,120,90,70,50,50,50,20,10,0,0,20,0,10,10,10,0,0,10,0,0,0,10,0,0,0,0,0,0,0,0,0,0,0,30,10,10,20,30,40,20,40,110,120,130,230,290,330,340,290,160,90,50,90,140,270,350,580,520,420,520,440,380,300,330,310,370,360,280,350,300,290,250,210,250,280,380,310,200,160,220,210,220,260,250,350,450,450,580,650,740,720,650,600,670,690,730,690,660,680,760,760,740,720,700,680,670,750,840,940,900,780,730,650,600,670,740,810,810,730,680,650,660,680,690,600,500,410,350,340,320,300,230,340,350,390,350,380,350,310,350,380,380,370,390,420,450,440,480,480,490,470,510,500,500,470,390,340,360,380,340,380,470,500,500,480,570,610,600,620,610,570,610,670,750,730,670,670,590,550
0,0,0,0,0,0,0,0,0,0,0,0,0,0,0,0,0,0,0,0,0,0,0,0,0,0,0,0,0,0,0,0,0,0,0,0,0,0,0,0,0,0,0,0,0,0,0,0,0,0,0,0,0,0,0,0,0,0,0,0,0,0,0,0,0,0,0,0,0,0,0,0,0,0,0,0,0,110,150,150,320,360,190,240,200,320,380,250,120,240,320,360,340,270,100,260,420,540,490,440,520,470,260,290,530,570,540,370,410,520,670,770,880,650,440,440,610,710,840,750,610,600,770,770,830,560,600,400,630,690,800,960,600,650,590,350,450,610,480,450,280,140,80,120,200,330,400,560,490,690,740,820,850,820,790,740,600,630,680,700,540,420,650,790,970,1000,760,840,900,1060,970,710,740,880,1030,800,890,860,980,920,930,980,880,850,940,600,500,630,910,860,640,710,700,550,590,850,1140,1210,960,980,950,830,680,480,380,340,510,460,540,360,430,300,240,230,220,220,240,210,210,190,180,200,190,180,170,180,170,170,170,150,160,150,150,160,170,190,240,180,130,140,170,240,290,350,400,490,630,760,1120,1270,1260,1150,1090,1060,980,820,680,460,290,130,260,380,530,680,800,880,890,780,680,620,570,490,430,370,300,260,210,110,40,70,120,20,10,150,180,220,250,150,140,140,290,420,280,300,680,630,870,1300,830,760,900,760,620,520,440,440,320,310,110,100,30,0,100,290,40,320,520,520,460,540,630,710,610,650,670,610,420,400,550,560,420,330,230,150,110,50,50,40,30,40,50,0,20,20,40,30,20,10,0,0,0,0,20,20,10,0,20,0,0,0,0,0,0,0,0,0,0,80,30,10,0,30,0,0,10,20,70,210,260,280,260,270,170,70,40,10,40,100,200,250,550,600,490,430,390,320,350,410,420,410,430,360,380,310,310,230,240,280,340,500,340,300,210,160,170,150,180,230,310,450,640,640,610,650,660,610,560,680,710,660,600,610,620,700,670,700,730,610,660,620,720,810,720,810,790,750,660,630,600,670,740,730,690,640,630,590,640,650,510,470,400,380,310,270,280,270,310,330,320,310,270,300,270,290,290,340,380,370,410,430,390,420,430,430,410,440,440,450,370,350,360,400,430,400,440,510,550,590,570,590,630,610,630,660,660,640,690,710,690,690,650,570,500
0,0,0,0,0,0,0,0,0,0,0,0,0,0,0,0,0,0,0,0,0,0,0,0,0,0,0,0,0,0,0,0,0,0,0,0,0,0,0,0,0,0,0,0,0,0,0,0,0,0,0,0,0,0,0,0,0,0,0,0,0,0,0,0,0,0,0,0,0,0,0,0,0,0,0,0,0,0,160,230,440,400,250,360,290,310,270,190,80,230,360,340,360,210,120,270,380,580,600,270,380,380,180,230,260,290,280,430,360,580,600,720,810,920,720,430,510,630,630,560,660,520,590,680,760,680,450,350,470,530,670,940,840,820,700,630,670,660,620,450,330,290,110,90,190,280,370,480,700,870,1050,850,770,750,670,690,570,510,600,700,440,450,610,720,880,960,830,860,930,940,870,900,740,770,980,920,780,890,1050,970,890,890,850,820,900,520,710,890,1020,720,700,820,740,630,620,800,1150,1160,1050,840,810,800,620,470,350,520,480,640,660,550,420,330,250,280,220,270,350,260,190,210,190,180,200,170,190,180,150,160,170,160,150,170,150,170,190,150,230,180,150,130,160,200,240,320,450,560,700,970,1250,1310,1220,1130,1090,1020,940,800,590,340,200,100,300,450,610,730,850,900,900,890,660,640,570,500,420,360,300,280,210,70,30,30,0,30,80,180,240,290,320,230,280,200,250,340,420,590,1270,1020,1290,1580,1500,1450,1260,1050,990,800,660,610,490,290,130,230,170,0,0,90,340,330,490,470,270,460,570,630,610,650,660,680,440,320,500,560,470,270,210,180,80,110,70,90,70,70,30,0,10,40,70,60,0,0,0,0,0,0,30,10,10,30,20,20,20,0,0,0,0,0,0,0,0,0,40,120,20,0,0,20,0,0,40,150,170,150,170,170,90,50,140,0,30,100,100,200,570,540,450,370,350,300,300,360,380,370,390,410,390,390,390,270,320,410,400,390,380,300,240,130,120,160,190,190,270,430,590,670,620,550,600,560,530,600,670,670,580,570,590,670,640,640,720,640,600,680,740,790,670,680,700,820,690,610,560,580,650,650,630,620,590,580,590,600,500,440,400,330,300,240,240,270,270,270,270,260,260,300,290,280,280,290,310,370,350,360,360,330,340,360,320,360,330,330,320,350,410,490,540,480,470,530,580,610,600,580,590,600,610,660,670,640,660,680,660,660,610,570,500
0,0,0,0,0,0,0,0,0,0,0,0,0,0,0,0,0,0,0,0,0,0,0,0,0,0,0,0,0,0,0,0,0,0,0,0,0,0,0,0,0,0,0,0,0,0,0,0,0,0,0,0,0,0,0,0,0,0,0,0,0,0,0,0,0,0,0,0,0,0,0,0,0,0,0,0,0,0,140,220,320,410,340,380,420,380,270,180,70,210,290,270,410,250,150,290,440,510,440,250,130,280,210,350,360,380,370,490,430,600,730,680,870,950,690,560,440,370,390,460,520,470,600,750,750,570,600,370,480,550,660,840,900,820,700,460,560,490,700,620,400,270,140,100,150,380,590,700,730,920,1080,930,770,690,570,540,580,510,590,690,530,410,510,600,800,860,910,860,870,890,840,950,800,710,840,850,770,850,920,970,900,880,740,650,710,670,680,990,970,720,760,920,870,770,590,770,1080,1030,1020,930,760,590,490,420,370,600,540,650,720,530,390,300,230,290,320,340,350,280,220,190,180,190,180,180,200,180,180,170,160,160,150,150,140,140,140,140,190,220,150,130,140,180,300,320,430,460,760,1140,1320,1280,1200,1110,1060,1020,910,760,530,310,100,220,380,520,640,750,850,860,840,840,790,660,580,540,490,390,340,250,220,60,70,50,30,30,130,200,250,290,340,350,280,280,330,400,650,670,1020,1600,1440,1560,1440,1360,1340,1010,800,630,790,760,550,360,250,320,180,30,0,0,190,220,430,370,200,330,460,490,630,640,570,620,500,450,350,520,410,320,230,200,110,100,130,130,50,110,50,20,0,20,50,20,130,20,0,0,0,0,10,10,20,20,0,0,10,0,0,0,0,0,0,0,0,0,10,20,10,80,20,0,30,10,20,60,60,50,60,60,20,10,40,10,50,70,80,170,320,610,400,320,300,320,280,290,340,340,340,380,310,330,320,350,400,420,340,350,360,280,210,130,140,180,170,210,260,370,420,590,680,580,560,550,530,580,620,650,610,530,580,610,610,620,640,720,530,610,690,710,650,590,600,730,740,630,550,550,570,600,580,590,570,540,570,590,540,470,450,340,290,240,260,260,270,280,280,270,340,350,370,360,270,300,290,270,290,300,320,290,300,290,290,320,340,360,400,460,440,480,550,550,490,540,560,610,600,600,610,540,600,630,640,580,600,620,620,640,610,560,500
0,0,0,0,0,0,0,0,0,0,0,0,0,0,0,0,0,0,0,0,0,0,0,0,0,0,0,0,0,0,0,0,0,0,0,0,0,0,0,0,0,0,0,0,0,0,0,0,0,0,0,0,0,0,0,0,0,0,0,0,0,0,0,0,0,0,0,0,0,0,0,0,0,0,0,0,0,0,110,140,200,360,400,410,320,460,280,110,40,150,220,190,320,270,70,290,440,300,220,130,450,370,330,330,620,560,370,370,490,500,730,810,850,1000,1050,710,550,590,570,370,500,360,570,570,570,440,480,330,460,630,630,750,670,760,510,470,330,350,440,550,410,270,120,90,140,440,650,620,670,870,1090,1010,730,740,690,510,420,410,550,700,560,310,460,570,790,710,790,860,750,860,740,840,590,690,790,740,780,970,1050,1020,960,790,770,760,570,670,740,1070,1100,980,910,1030,950,810,760,900,1110,1010,870,680,680,680,560,460,410,550,730,810,730,560,510,290,230,220,240,250,270,230,210,200,220,180,190,170,190,170,160,160,150,160,140,150,170,140,140,160,230,260,210,150,150,190,280,390,500,650,860,1240,1310,1300,1210,1100,1050,990,890,760,550,340,90,230,410,530,620,720,800,800,810,790,830,710,650,520,490,350,340,260,180,60,20,30,70,120,130,220,270,330,380,420,480,380,440,530,810,1180,1450,1630,1600,1570,1560,1210,1120,1100,1120,840,490,580,370,270,350,480,270,110,30,0,90,100,200,250,140,310,370,580,860,680,560,470,430,360,260,410,350,390,380,170,160,180,140,120,90,80,20,30,20,0,70,20,170,60,0,0,0,20,0,0,30,30,10,0,10,10,0,0,0,0,0,0,0,0,0,20,20,0,80,10,0,40,20,20,10,30,20,0,0,20,10,10,30,0,40,120,280,380,350,290,260,240,220,250,240,270,280,340,340,290,310,300,270,260,270,250,290,240,190,140,180,160,180,220,250,310,290,340,560,700,630,610,530,530,540,570,620,570,620,590,550,610,640,640,520,570,590,620,600,550,660,730,690,610,520,480,510,540,530,580,570,500,520,540,490,450,430,360,270,240,240,240,330,370,380,410,400,420,430,410,310,280,280,300,340,290,320,350,400,400,370,420,450,440,460,520,530,490,570,650,530,540,580,600,610,600,580,540,540,600,580,570,560,560,570,570,580,520,540
0,0,0,0,0,0,0,0,0,0,0,0,0,0,0,0,0,0,0,0,0,0,0,0,0,0,0,0,0,0,0,0,0,0,0,0,0,0,0,0,0,0,0,0,0,0,0,0,0,0,0,0,0,0,0,0,0,0,0,0,0,0,0,0,0,0,0,0,0,0,0,0,0,0,0,0,0,0,0,130,260,340,430,360,280,370,270,200,20,110,70,60,160,150,100,300,450,210,100,320,520,610,520,490,740,480,620,500,560,510,740,750,610,780,1040,810,790,770,620,570,430,290,460,460,550,420,330,330,660,790,680,620,450,640,500,480,430,200,360,290,170,110,100,70,240,550,450,450,580,750,970,880,790,630,620,580,420,380,540,670,590,300,410,560,700,720,740,870,700,850,770,640,650,610,790,710,750,820,960,1170,990,960,880,800,610,810,940,1110,1250,1160,1170,1120,1030,940,920,890,1070,920,810,730,660,560,490,450,390,470,690,850,790,560,500,300,220,220,190,200,220,200,180,220,270,270,220,220,200,180,190,170,180,150,150,160,160,150,140,170,160,250,210,130,160,210,270,350,470,620,990,1280,1310,1270,1180,1110,1030,1010,900,740,570,350,200,190,340,460,550,640,750,780,800,820,820,700,610,530,440,410,300,180,160,70,30,40,80,130,170,220,320,370,390,470,470,530,680,630,920,1640,1640,1620,1540,1400,1480,1400,970,750,790,600,420,370,310,420,820,760,490,170,40,0,60,50,80,70,110,140,290,460,600,610,560,470,330,280,270,340,310,390,410,250,170,190,200,200,100,70,60,90,40,0,70,20,210,240,170,0,0,30,50,20,10,40,10,30,10,10,0,0,0,0,0,0,0,0,20,20,40,40,0,10,20,20,30,30,20,10,0,10,10,20,10,30,20,0,40,60,180,260,240,270,230,240,200,220,220,210,260,320,260,250,270,260,280,250,210,230,260,230,190,130,210,180,200,250,240,240,260,360,410,670,650,720,610,550,540,530,610,530,530,600,600,590,630,660,550,500,530,550,510,550,650,710,680,630,590,520,450,520,510,530,520,490,480,530,460,430,400,340,260,240,230,250,350,380,410,420,440,410,410,400,400,360,400,430,410,430,420,410,470,480,480,440,500,540,530,560,560,510,560,630,600,570,580,600,580,570,580,540,510,570,560,560,490,520,500,500,490,500,540
0,0,0,0,0,0,0,0,0,0,0,0,0,0,0,0,0,0,0,0,0,0,0,0,0,0,0,0,0,0,0,0,0,0,0,0,0,0,0,0,0,0,0,0,0,0,0,0,0,0,0,0,0,0,0,0,0,0,0,0,0,0,0,0,0,0,0,0,0,0,0,0,0,0,0,0,0,0,0,100,230,300,380,380,260,310,340,110,60,10,10,60,250,240,260,360,340,100,260,390,600,720,650,650,730,530,760,600,670,670,700,610,510,670,790,750,740,850,580,530,460,280,420,360,440,290,390,530,640,950,800,720,480,490,580,290,190,180,230,170,110,50,90,120,260,300,290,390,620,740,850,730,720,750,620,550,550,330,550,590,570,340,350,490,640,670,710,750,640,870,820,700,570,620,650,690,870,850,870,1140,1160,1060,920,760,680,810,830,1000,1290,1300,1170,1070,1020,940,870,980,1010,930,820,860,810,610,520,460,480,460,540,760,810,470,350,300,250,300,200,190,180,190,220,220,330,320,290,280,210,200,180,170,160,150,210,150,140,150,150,140,160,200,150,160,240,230,250,340,450,680,1090,1290,1290,1240,1150,1060,960,1000,900,770,610,420,310,110,300,380,450,580,650,750,760,810,780,720,640,570,500,390,320,260,180,70,40,70,110,120,210,180,290,430,420,530,530,460,710,870,1170,1750,1640,1620,1410,1070,1020,1180,1170,910,690,490,710,830,850,930,860,770,720,480,160,0,0,0,40,50,40,50,150,310,450,540,600,450,330,200,250,250,320,400,390,240,180,200,170,150,100,110,90,120,80,50,100,140,180,210,200,0,0,0,0,20,10,0,0,10,10,0,0,0,0,0,0,0,0,0,10,40,30,80,10,0,40,10,0,0,10,0,30,10,0,10,10,0,10,10,20,100,90,160,170,220,230,200,170,170,180,190,190,240,230,260,230,190,240,230,180,290,360,300,210,150,170,230,250,220,220,210,330,360,530,730,750,690,680,550,650,530,530,530,530,530,660,630,710,640,530,550,460,490,470,490,630,610,660,570,540,530,440,470,510,510,500,460,470,510,450,410,390,350,240,240,230,240,340,390,420,450,410,440,440,460,430,440,460,450,430,470,490,460,520,490,510,520,550,610,590,620,620,570,550,600,600,610,610,590,560,550,510,500,510,540,520,480,500,530,500,500,520,610,590
0,0,0,0,0,0,0,0,0,0,0,0,0,0,0,0,0,0,0,0,0,0,0,0,0,0,0,0,0,0,0,0,0,0,0,0,0,0,0,0,0,0,0,0,0,0,0,0,0,0,0,0,0,0,0,0,0,0,0,0,0,0,0,0,0,0,0,0,0,0,0,0,0,0,0,0,0,0,0,180,130,310,250,270,350,250,350,130,30,10,20,220,290,300,380,490,320,130,350,560,670,810,710,800,760,620,750,720,830,770,590,580,410,530,760,550,570,730,570,600,360,300,410,350,290,400,510,490,630,870,670,490,580,270,360,210,280,260,140,140,100,90,100,80,80,310,480,550,690,690,670,760,680,580,640,520,310,240,360,510,480,280,410,520,660,580,680,700,630,840,660,660,470,550,610,710,870,1050,1130,1160,1070,840,820,740,750,850,810,950,1190,1270,1210,1170,1010,890,940,1060,970,870,910,820,700,630,480,570,540,540,570,670,700,620,380,280,350,300,310,300,190,200,200,220,240,320,310,330,240,200,180,150,190,150,140,160,150,160,170,150,140,130,150,200,250,330,380,460,570,700,1150,1300,1270,1210,1110,1040,970,940,910,820,690,510,370,240,230,310,350,480,590,690,740,730,750,690,610,520,440,420,300,230,230,40,60,90,120,120,160,230,300,360,490,670,700,540,720,900,1630,1710,1690,1590,1460,1450,1300,850,760,700,850,1090,1140,1010,1010,930,860,740,620,630,550,380,40,0,0,0,40,60,90,160,370,650,530,380,240,230,210,240,320,400,330,270,240,250,190,140,130,160,190,130,90,60,110,140,170,170,140,20,20,20,0,20,50,10,20,10,0,0,0,0,0,0,0,0,0,0,0,0,0,10,0,0,0,0,0,0,0,0,10,20,20,0,10,110,130,60,10,0,40,100,140,170,210,210,200,230,180,170,170,170,160,170,200,190,230,160,180,230,340,370,250,150,150,200,250,220,230,250,320,490,540,730,740,710,660,620,600,620,530,530,530,530,540,600,660,590,600,520,450,430,410,470,570,540,570,520,530,540,450,500,480,460,460,450,430,460,410,370,370,340,260,220,200,250,310,380,370,410,390,430,450,480,500,510,510,490,490,510,520,510,560,530,500,550,580,620,630,650,650,600,590,600,630,630,620,590,570,540,520,500,490,530,460,460,560,570,570,630,610,600,640
0,0,0,0,0,0,0,0,0,0,0,0,0,0,0,0,0,0,0,0,0,0,0,0,0,0,0,0,0,0,0,0,0,0,0,0,0,0,0,0,0,0,0,0,0,0,0,0,0,0,0,0,0,0,0,0,0,0,0,0,0,0,0,0,0,0,0,0,0,0,0,0,0,0,0,0,0,0,0,80,80,270,260,170,300,200,310,210,160,30,0,30,30,30,120,270,60,170,350,470,630,900,920,880,860,660,800,810,940,820,570,530,440,490,600,460,540,700,490,470,380,310,330,220,300,370,570,680,650,680,500,420,340,420,320,200,450,520,360,340,430,140,100,70,70,260,410,610,630,550,660,740,690,560,500,540,500,350,220,370,370,260,390,490,620,640,550,560,620,850,690,540,470,600,620,750,830,930,1030,1180,1100,900,850,950,900,960,950,950,1080,1280,1170,1120,1120,1060,1040,1100,990,940,870,790,680,640,500,510,640,710,560,610,630,490,300,260,260,240,220,250,200,200,230,260,250,290,340,320,320,230,180,170,170,150,150,150,130,180,150,130,140,150,210,180,210,290,310,400,620,860,1210,1300,1240,1170,1090,1010,1030,980,740,800,730,580,470,300,130,230,270,360,490,590,720,700,670,610,530,470,430,410,260,240,170,60,80,180,170,150,170,260,370,410,700,780,840,870,960,1140,1790,1750,1710,1540,1380,1240,1100,790,1030,1180,1150,1120,1050,990,880,850,840,770,690,560,430,470,410,170,50,10,90,60,30,190,400,600,410,370,200,220,170,290,370,270,300,340,410,320,230,150,180,170,140,90,70,50,80,140,160,170,160,20,30,20,40,10,20,0,20,0,0,0,0,0,0,0,0,0,0,0,0,30,50,10,0,80,50,10,10,30,20,0,40,30,0,0,20,40,80,120,140,0,10,70,110,150,180,200,210,240,200,180,150,140,160,150,160,160,160,140,140,220,250,360,220,150,120,150,150,200,280,260,340,510,620,710,710,650,610,610,590,590,530,530,530,530,530,530,730,530,610,620,510,410,430,460,560,500,480,530,510,530,430,400,410,420,410,420,470,410,380,330,370,330,250,210,220,240,270,310,360,360,420,440,460,460,520,520,530,540,520,540,540,540,560,560,590,570,590,620,630,650,650,640,640,600,620,650,630,600,550,520,480,470,490,510,490,490,560,630,630,640,640,590,630
0,0,0,0,0,0,0,0,0,0,0,0,0,0,0,0,0,0,0,0,0,0,0,0,0,0,0,0,0,0,0,0,0,0,0,0,0,0,0,0,0,0,0,0,0,0,0,0,0,0,0,0,0,0,0,0,0,0,0,0,0,0,0,0,0,0,0,0,0,0,0,0,0,0,0,0,0,0,0,0,80,160,220,90,260,210,260,350,190,0,10,70,100,180,210,100,230,190,460,510,650,840,980,960,880,750,920,850,1010,840,560,390,350,420,430,380,440,560,530,330,380,210,220,330,470,570,600,690,780,580,620,570,520,600,610,230,380,720,730,640,340,90,70,80,90,350,570,700,510,430,610,740,720,620,510,390,440,580,220,260,210,340,500,580,710,610,510,610,650,700,660,440,510,650,730,690,780,800,1010,1080,1160,970,970,980,1020,1010,1170,1150,1160,1290,1190,1050,1020,1000,1090,1090,990,1000,860,690,680,640,620,570,570,760,730,700,510,350,300,290,290,280,260,210,230,240,220,250,220,230,320,290,300,270,240,220,180,140,150,150,160,140,150,180,130,180,260,200,210,250,310,440,620,880,1200,1270,1210,1100,1030,980,990,990,910,810,710,570,520,450,340,350,170,200,420,500,630,630,580,420,410,380,340,340,260,220,10,140,210,310,250,210,230,310,420,520,820,980,1020,1060,1140,1670,1830,1780,1610,1480,1420,1090,1200,1260,1240,1210,1180,1160,1100,1040,930,810,600,680,650,570,410,270,290,220,180,130,0,0,50,160,410,460,370,430,300,130,140,250,210,230,290,370,550,450,250,180,190,180,130,70,40,30,70,100,140,120,100,20,30,10,0,20,20,30,10,10,20,0,0,0,0,0,0,0,0,0,10,50,20,40,20,10,10,0,0,20,0,40,10,10,20,70,40,100,120,90,40,40,40,100,130,160,200,130,160,160,180,190,190,180,120,150,130,100,120,140,120,150,230,300,340,220,190,110,180,190,230,260,330,380,550,670,630,640,660,650,590,610,640,530,530,530,530,530,530,530,520,610,580,430,410,400,500,430,470,470,450,550,500,420,350,340,370,410,450,410,410,380,300,260,210,210,210,240,250,280,320,390,440,450,450,490,500,540,540,530,540,550,540,540,540,550,590,590,550,590,630,660,650,690,660,660,650,650,650,630,600,550,490,450,430,440,460,540,570,650,670,670,640,620,630
0,0,0,0,0,0,0,0,0,0,0,0,0,0,0,0,0,0,0,0,0,0,0,0,0,0,0,0,0,0,0,0,0,0,0,0,0,0,0,0,0,0,0,0,0,0,0,0,0,0,0,0,0,0,0,0,0,0,0,0,0,0,0,0,0,0,0,0,0,0,0,0,0,0,0,0,0,0,0,0,60,30,110,60,210,160,220,190,80,10,90,240,310,550,530,460,390,310,350,400,540,770,970,1110,1000,840,930,1030,1000,890,640,380,310,310,400,290,320,560,430,240,240,220,320,430,510,520,680,720,870,670,800,850,630,570,400,280,430,790,770,450,280,100,80,70,100,370,460,560,500,430,600,670,740,610,470,320,300,420,200,190,230,360,460,620,690,670,480,510,690,680,570,550,500,630,710,820,910,960,1010,1020,1070,1080,1110,1050,1140,1170,1270,1330,1260,1180,1040,1040,890,900,1030,1060,960,830,900,740,650,680,690,680,720,700,850,910,650,340,300,290,310,290,210,210,250,230,280,250,240,230,280,300,280,280,280,290,210,160,160,150,150,130,140,150,130,200,250,220,250,290,370,410,520,720,1170,1220,1160,1090,970,960,970,920,880,820,760,660,550,480,460,360,190,70,330,430,560,530,460,400,290,260,240,240,250,280,40,190,330,410,480,270,270,300,430,700,1010,1180,1280,1410,1600,1870,1800,1710,1600,1490,1410,1400,1320,1240,1220,1210,1220,1150,1100,1030,930,760,660,540,400,460,380,220,140,90,70,70,40,0,50,210,360,370,360,310,270,150,100,170,260,270,290,370,690,680,280,210,170,200,180,70,50,40,60,90,110,110,60,30,30,10,0,40,20,10,20,10,30,0,0,0,0,0,0,0,0,50,10,10,60,60,20,10,0,10,10,0,10,10,10,0,30,0,10,40,70,50,40,30,40,150,220,180,190,180,170,160,160,160,130,150,110,110,130,130,110,100,130,110,140,210,270,230,180,110,180,200,200,210,300,410,690,580,590,760,720,670,680,610,530,530,530,530,530,530,530,460,490,560,530,430,380,380,400,430,420,410,460,520,510,490,460,410,350,390,390,410,410,430,330,280,220,200,200,240,260,300,300,390,430,420,420,470,520,500,500,500,500,520,530,530,540,550,550,530,540,580,630,650,650,630,660,680,650,650,650,640,610,550,480,400,470,490,480,560,640,660,690,690,640,680,660
0,0,0,0,0,0,0,0,0,0,0,0,0,0,0,0,0,0,0,0,0,0,0,0,0,0,0,0,0,0,0,0,0,0,0,0,0,0,0,0,0,0,0,0,0,0,0,0,0,0,0,0,0,0,0,0,0,0,0,0,0,0,0,0,0,0,0,0,0,0,0,0,0,0,0,0,0,0,0,0,0,110,10,90,70,100,240,50,10,10,60,60,110,270,530,690,410,360,440,610,690,850,1030,1090,1170,1050,1040,1110,940,710,570,460,390,270,340,240,320,510,290,150,210,280,450,580,720,750,520,770,870,980,1040,950,750,680,390,540,550,780,780,660,420,180,70,60,70,290,340,440,390,330,440,560,720,670,530,370,260,270,130,230,260,350,410,550,660,540,450,570,780,670,510,350,490,640,700,730,820,930,1010,1100,1150,1260,1260,1110,1240,1330,1290,1190,1200,1220,1140,1000,920,880,1030,970,920,790,770,810,730,760,850,840,850,720,780,730,650,350,280,250,230,280,210,220,240,320,300,270,210,210,210,250,300,280,270,270,240,210,170,160,170,170,170,150,120,230,320,220,280,380,480,600,680,1020,1180,1210,1150,1090,960,850,790,770,760,740,720,660,620,480,400,260,120,50,250,330,370,390,380,300,200,170,70,60,190,120,130,210,220,270,350,440,550,630,640,900,1050,1780,1880,1900,1860,1890,1800,1630,1600,1470,1340,1260,1280,1250,1180,1120,1200,1190,1120,1060,940,840,790,680,610,510,410,400,200,60,40,20,20,40,20,40,200,190,220,160,180,170,100,120,190,200,310,360,500,700,480,230,160,140,170,90,60,40,50,80,100,90,30,20,30,20,50,10,30,20,0,30,20,0,0,0,0,0,0,0,0,30,40,30,30,40,10,20,20,10,0,10,20,40,30,60,90,160,110,50,10,20,10,40,50,160,260,230,260,190,180,160,140,170,180,200,150,100,130,100,90,100,90,130,150,160,170,170,130,100,190,230,270,260,360,520,500,450,530,650,670,700,700,630,540,530,530,530,530,530,530,460,410,500,470,430,350,410,410,460,370,390,460,550,510,430,440,410,320,310,360,420,430,400,350,220,200,190,220,220,240,240,290,360,380,380,430,420,420,440,450,450,470,540,450,510,500,480,480,490,520,530,610,620,620,630,630,640,640,670,730,710,600,530,450,450,520,560,540,550,600,670,700,710,700,690,790
0,0,0,0,0,0,0,0,0,0,0,0,0,0,0,0,0,0,0,0,0,0,0,0,0,0,0,0,0,0,0,0,0,0,0,0,0,0,0,0,0,0,0,0,0,0,0,0,0,0,0,0,0,0,0,0,0,0,0,0,0,0,0,0,0,0,0,0,0,0,0,0,0,0,0,0,0,0,0,0,0,20,30,50,100,190,270,40,0,10,80,330,260,210,410,510,420,510,550,490,560,660,800,1150,1260,1210,1030,1010,970,840,720,500,380,240,210,210,380,490,260,150,270,490,600,630,620,590,480,630,650,940,1100,970,670,730,530,470,730,810,550,530,490,250,80,60,80,210,280,410,220,420,520,700,730,620,530,460,400,240,220,250,230,350,500,540,470,470,450,610,770,660,570,340,420,520,520,700,760,800,860,1130,1040,1210,1080,970,1120,1180,1250,1160,1120,990,1030,970,810,900,910,870,840,940,820,630,660,700,790,900,980,720,610,690,440,390,310,270,240,280,220,250,280,360,350,280,220,210,210,220,280,200,210,230,220,210,200,200,240,220,190,160,140,240,290,330,360,420,470,620,980,1080,1250,1220,1110,1040,950,850,660,520,510,520,600,540,530,450,420,190,240,70,130,220,210,180,120,150,70,80,210,210,150,220,210,250,260,340,420,470,580,610,690,900,1030,1660,1910,1900,1840,1770,1770,1640,1480,1420,1430,1350,1180,1000,1020,1020,1070,1170,1100,1040,960,870,800,730,650,460,550,500,70,0,0,0,50,70,40,60,120,40,90,100,100,90,100,150,340,300,250,330,400,490,650,250,160,140,140,120,90,50,40,40,60,50,20,20,30,30,30,20,30,30,10,20,10,0,0,0,0,0,0,0,0,0,0,10,40,70,70,80,10,40,20,20,10,90,170,140,160,170,150,60,30,10,0,0,10,90,200,260,370,240,200,180,180,160,170,240,160,120,120,100,110,80,120,120,90,130,140,110,80,100,120,140,190,140,240,280,310,300,420,450,560,680,700,720,610,530,530,530,530,530,440,400,420,450,400,360,340,350,350,350,340,410,450,450,440,380,350,350,310,290,320,370,430,410,360,230,220,220,200,200,200,210,230,280,270,330,360,320,400,380,420,450,450,440,480,480,490,410,470,470,540,550,560,590,590,610,610,580,600,610,610,590,540,490,460,420,520,590,650,630,650,710,750,700,730,660,700
0,0,0,0,0,0,0,0,0,0,0,0,0,0,0,0,0,0,0,0,0,0,0,0,0,0,0,0,0,0,0,0,0,0,0,0,0,0,0,0,0,0,0,0,0,0,0,0,0,0,0,0,0,0,0,0,0,0,0,0,0,0,0,0,0,0,0,0,0,0,0,0,0,0,0,0,0,0,0,0,0,0,30,20,80,190,190,20,10,50,210,370,390,170,310,410,530,490,670,780,760,940,910,990,1320,1190,910,790,1010,720,690,530,460,440,290,270,240,440,180,200,330,410,430,400,410,480,530,660,690,710,840,970,810,750,560,650,800,630,620,370,360,200,40,40,60,80,140,300,210,390,520,630,710,620,480,370,340,230,160,430,330,310,340,400,350,510,600,750,830,650,430,320,360,570,570,560,680,730,810,1020,940,1050,880,1020,1070,1070,1140,1210,1220,1110,910,960,900,770,880,810,760,910,800,630,610,640,720,800,920,600,490,440,400,350,410,360,250,270,230,220,350,390,350,290,230,200,220,210,210,260,260,210,190,260,300,210,220,260,170,150,160,190,280,280,320,400,440,580,900,1090,1220,1200,1080,990,930,800,530,720,700,660,480,540,340,510,420,360,320,140,110,90,70,90,20,80,170,290,300,330,310,440,160,220,260,350,410,530,650,740,860,1340,1230,1640,1900,1890,1860,1830,1640,1570,1490,1510,1420,1330,1260,1180,970,870,810,970,1090,1040,910,800,740,710,640,520,310,410,30,0,20,50,40,50,60,90,50,70,40,40,60,70,60,220,430,340,370,390,390,420,650,400,190,140,130,90,70,70,70,20,30,10,0,0,30,20,20,20,10,0,0,20,30,0,0,0,0,0,0,0,0,0,0,70,80,120,0,40,50,0,20,0,50,110,170,190,100,160,90,20,20,0,0,10,0,70,170,270,380,270,240,230,190,180,190,250,210,150,110,80,120,100,90,100,110,120,110,70,130,150,110,140,160,140,190,300,310,280,360,480,530,670,700,730,620,530,620,530,530,610,470,370,360,360,380,340,330,320,350,340,280,320,390,410,360,310,300,310,260,290,260,360,410,360,320,320,220,230,200,220,210,170,190,190,210,240,300,250,300,340,380,430,400,390,410,430,390,440,490,510,550,590,540,570,580,600,560,610,590,590,600,600,540,480,480,420,510,600,630,660,690,710,720,730,730,730,710
0,0,0,0,0,0,0,0,0,0,0,0,0,0,0,0,0,0,0,0,0,0,0,0,0,0,0,0,0,0,0,0,0,0,0,0,0,0,0,0,0,0,0,0,0,0,0,0,0,0,0,0,0,0,0,0,0,0,0,0,0,0,0,0,0,0,0,0,0,0,0,0,0,0,0,0,0,0,0,0,0,0,40,20,30,30,120,10,0,80,190,360,430,510,400,390,550,640,610,830,1050,1170,1240,1300,1350,1220,840,630,700,760,540,490,500,430,420,260,220,270,100,190,280,290,260,280,330,460,410,470,500,620,810,830,690,690,580,740,810,580,390,340,180,110,90,30,50,40,30,160,140,250,450,600,730,610,590,380,210,210,190,470,530,470,370,320,360,440,550,740,790,630,520,260,380,560,650,750,800,810,810,860,890,850,900,1090,1050,980,1070,1060,1160,1110,1090,1010,820,980,670,770,700,820,760,670,740,580,630,700,730,490,460,350,350,410,370,350,310,280,220,240,380,340,360,250,210,210,210,200,210,280,290,280,230,200,230,230,190,180,180,160,150,180,200,260,350,380,520,690,930,1110,1280,1150,1060,990,900,770,560,840,820,770,700,620,610,560,560,440,400,300,150,100,140,140,230,280,300,330,370,580,640,540,170,280,280,350,500,550,690,850,930,1230,1880,1900,1940,1880,1830,1760,1690,1570,1490,1490,1460,1300,1220,1180,1140,1120,1020,880,760,950,900,840,780,710,620,400,270,170,120,0,0,100,60,0,50,0,80,230,160,130,70,70,140,270,430,440,680,710,350,460,600,600,250,160,100,80,50,20,10,70,10,30,10,10,20,10,20,20,20,40,30,20,0,0,0,0,0,0,0,0,0,0,0,60,20,60,0,50,0,0,0,0,10,30,170,180,90,50,0,10,60,40,10,0,30,110,340,290,360,240,190,190,200,190,190,190,200,190,180,120,150,100,100,70,100,70,90,90,100,140,170,190,150,120,160,270,230,260,320,410,460,510,620,540,620,710,650,530,550,520,560,420,370,340,340,330,330,330,430,420,360,310,290,310,290,280,330,290,300,340,220,330,390,290,280,320,210,210,180,200,190,200,190,180,180,180,220,220,260,270,350,400,380,350,370,330,410,470,510,520,540,510,530,520,530,530,530,570,590,600,590,580,550,480,420,430,510,550,610,640,700,710,720,730,740,760,840
0,0,0,0,0,0,0,0,0,0,0,0,0,0,0,0,0,0,0,0,0,0,0,0,0,0,0,0,0,0,0,0,0,0,0,0,0,0,0,0,0,0,0,0,0,0,0,0,0,0,0,0,0,0,0,0,0,0,0,0,0,0,0,0,0,0,0,0,0,0,0,0,0,0,0,0,0,0,0,0,0,0,20,60,200,80,10,30,10,70,210,370,550,620,630,410,490,720,870,850,820,1210,1270,1390,1380,1160,850,580,520,710,530,440,310,230,330,330,130,180,110,250,210,300,430,370,520,560,690,580,630,710,700,940,720,560,730,730,800,620,450,280,270,160,290,200,90,20,30,90,120,400,450,580,580,570,530,490,300,140,240,450,460,550,640,530,470,540,560,720,660,540,430,260,460,440,470,580,730,710,670,720,810,740,970,1090,1040,990,910,960,1010,1040,1040,1000,920,950,940,610,730,730,750,800,860,690,570,790,760,470,500,360,330,320,290,270,240,240,230,240,280,280,350,260,230,220,210,220,260,290,280,280,270,270,190,200,200,170,170,170,180,150,210,230,370,420,460,580,890,1120,1230,1150,1050,990,870,810,590,910,900,850,800,750,700,630,590,500,440,350,260,130,170,280,330,340,390,470,460,490,610,420,260,250,300,400,450,600,740,850,1110,1240,1810,1860,1880,1900,1870,1670,1570,1520,1240,1070,1130,1230,1180,1140,1110,1070,1070,940,660,640,900,850,770,670,540,450,430,200,140,80,170,110,0,0,0,0,0,110,220,220,140,310,430,290,390,440,460,580,470,500,580,700,420,230,150,120,50,60,70,90,70,30,10,10,20,20,30,30,40,10,0,40,0,0,0,0,0,0,0,0,0,0,0,120,40,0,0,0,40,40,70,0,20,40,140,180,160,30,40,10,10,10,20,20,80,100,370,380,350,240,190,210,190,170,150,170,180,200,190,140,150,140,110,100,80,100,100,160,110,100,130,170,100,140,170,220,190,340,320,450,440,610,580,540,490,540,610,590,460,490,480,460,440,360,310,370,340,340,430,450,350,290,310,280,300,370,440,360,360,340,290,270,320,250,300,300,240,210,210,180,200,220,190,160,200,170,190,230,220,320,350,340,340,320,380,390,460,490,500,510,530,530,510,500,480,570,580,550,590,600,610,570,530,430,380,470,520,580,620,620,790,720,690,720,760,760,820
0,0,0,0,0,0,0,0,0,0,0,0,0,0,0,0,0,0,0,0,0,0,0,0,0,0,0,0,0,0,0,0,0,0,0,0,0,0,0,0,0,0,0,0,0,0,0,0,0,0,0,0,0,0,0,0,0,0,0,0,0,0,0,0,0,0,0,0,0,0,0,0,0,0,0,0,0,0,0,0,0,0,0,30,290,300,150,50,20,200,60,230,350,490,660,820,690,620,750,1000,1160,1290,1360,1420,1310,820,680,690,460,480,540,500,450,310,210,280,250,110,130,270,340,490,610,700,790,750,820,770,690,760,890,920,790,700,930,910,920,620,720,450,280,410,560,450,250,30,60,130,80,310,500,580,470,470,460,390,280,140,190,240,330,450,560,730,740,590,630,730,590,410,350,270,320,290,350,380,570,630,520,710,610,820,1000,1100,1020,980,970,830,920,940,930,930,870,800,820,740,600,630,780,840,730,670,450,690,660,530,380,380,340,310,280,270,250,230,240,240,220,260,310,260,240,270,240,210,270,290,280,230,220,210,170,240,240,210,170,170,140,160,180,270,400,420,540,640,950,1140,1160,1130,1050,1010,890,770,850,960,950,900,850,800,750,640,620,600,520,420,350,280,150,290,390,440,510,610,590,480,390,230,350,280,360,400,590,630,800,1140,1490,1830,1880,1870,1830,1850,1800,1710,1510,1230,1010,1130,970,1000,1170,1020,1080,1090,1000,920,830,550,780,790,760,720,610,480,210,90,170,420,450,350,220,110,90,0,0,0,0,50,60,380,580,490,360,380,410,610,620,490,470,620,660,310,280,130,110,140,150,120,50,30,10,10,0,0,10,10,0,10,0,20,0,0,0,0,0,0,0,0,0,0,0,60,100,0,0,0,30,10,50,0,30,50,140,180,200,80,10,10,30,30,40,50,90,290,320,350,310,210,210,200,180,190,170,130,150,130,210,130,160,150,140,140,120,120,150,260,180,80,60,100,110,140,180,210,330,320,310,430,620,620,470,380,380,390,540,650,480,460,420,470,430,350,350,340,370,390,380,470,420,350,330,300,370,420,420,380,300,40,100,260,260,250,280,250,270,280,270,220,200,180,150,190,170,180,170,210,240,330,260,260,290,290,420,400,420,490,480,390,430,440,490,490,540,560,590,590,580,710,610,580,490,400,440,480,510,580,590,720,720,670,660,700,710,780,840
0,0,0,0,0,0,0,0,0,0,0,0,0,0,0,0,0,0,0,0,0,0,0,0,0,0,0,0,0,0,0,0,0,0,0,0,0,0,0,0,0,0,0,0,0,0,0,0,0,0,0,0,0,0,0,0,0,0,0,0,0,0,0,0,0,0,0,0,0,0,0,0,0,0,0,0,0,0,0,0,0,0,0,40,60,260,370,250,220,290,300,260,330,430,580,810,880,760,690,830,1000,1200,1310,1270,1030,840,540,570,380,440,390,490,550,510,250,160,140,90,190,260,360,380,470,540,700,890,720,590,600,600,730,910,960,930,860,980,1030,880,550,460,360,540,540,250,130,40,20,30,180,420,480,460,430,320,350,290,290,110,230,380,260,390,470,630,790,820,750,640,650,590,370,230,330,410,610,610,430,470,500,560,740,800,960,1100,1030,900,920,930,830,850,820,900,990,970,800,750,640,580,600,750,690,550,450,560,570,560,350,350,350,330,290,260,260,240,240,330,250,250,310,270,270,260,210,190,240,280,280,270,200,180,170,240,230,170,160,150,160,170,210,200,410,480,530,790,1020,1160,1140,1120,1030,990,880,730,970,980,960,910,870,860,790,690,640,640,580,490,370,310,150,300,430,520,590,680,700,530,430,310,360,440,420,570,560,720,1050,1660,1800,1780,1850,1880,1930,1790,1690,1580,1280,1150,1390,1330,1180,810,810,840,760,880,970,810,750,570,640,740,580,570,500,220,100,250,570,550,560,460,390,260,60,20,30,0,0,0,0,110,540,470,340,320,380,530,640,490,450,590,710,410,220,260,250,340,230,80,40,10,20,30,20,0,20,20,10,0,0,10,10,0,0,0,0,0,0,0,0,0,0,10,30,0,0,40,20,20,10,10,10,10,30,50,150,40,0,10,20,10,30,70,130,320,320,310,270,260,200,190,170,160,150,140,130,130,130,160,160,150,170,230,230,230,300,290,230,160,90,120,90,130,170,280,240,240,330,480,600,570,430,350,330,360,500,560,490,450,450,450,450,360,370,390,410,470,420,460,420,340,330,330,410,520,410,380,310,310,330,250,240,250,270,250,270,260,270,220,210,200,180,180,180,160,170,190,210,260,270,340,370,310,400,410,420,370,430,450,490,470,440,510,560,560,600,570,600,600,580,560,490,380,380,400,440,490,570,620,690,680,660,710,680,720,730
0,0,0,0,0,0,0,0,0,0,0,0,0,0,0,0,0,0,0,0,0,0,0,0,0,0,0,0,0,0,0,0,0,0,0,0,0,0,0,0,0,0,0,0,0,0,0,0,0,0,0,0,0,0,0,0,0,0,0,0,0,0,0,0,0,0,0,0,0,0,0,0,0,0,0,0,0,0,0,0,0,0,0,70,120,150,350,310,370,350,400,330,540,460,540,790,930,930,850,820,980,1320,1340,1050,850,760,600,460,360,370,420,320,560,520,250,290,260,140,100,220,350,530,670,830,930,770,580,450,580,640,740,890,1050,1050,1030,970,1010,900,630,570,670,730,590,370,280,170,100,10,110,280,460,250,300,180,260,130,180,100,270,460,360,380,470,570,690,860,780,590,490,520,270,240,400,540,650,750,790,600,610,820,990,900,950,1050,1070,930,860,880,870,740,830,930,980,980,880,740,640,650,580,620,520,680,740,460,420,490,320,360,320,310,290,270,240,230,260,400,270,230,290,290,250,230,240,230,210,190,210,200,170,170,160,180,220,180,170,130,170,200,220,260,320,360,550,720,1060,1230,1130,1080,1030,950,870,920,1000,980,970,940,890,820,790,710,630,640,580,500,390,260,230,340,440,580,690,750,680,560,420,430,320,610,550,600,740,840,1090,1870,1820,1770,1800,1850,1910,1790,1700,1370,1300,1510,1360,1270,1190,980,880,830,690,630,570,860,690,530,440,690,640,460,310,80,250,580,560,510,480,430,400,340,160,60,0,0,20,50,0,0,490,440,320,290,380,570,600,470,420,500,660,660,390,430,340,370,150,80,30,10,10,0,20,10,10,0,0,20,30,0,20,0,0,0,0,0,0,0,0,0,0,0,30,0,50,0,40,0,20,40,20,10,0,0,10,30,10,10,20,80,120,100,160,300,320,330,350,340,270,240,200,160,150,140,120,120,140,120,130,160,180,230,220,240,270,270,240,170,70,60,90,110,250,270,210,250,340,590,480,480,380,310,300,350,520,550,520,490,480,480,450,370,390,430,490,590,500,480,400,360,360,440,490,480,410,410,330,300,340,310,250,230,230,260,250,230,230,230,220,220,210,190,170,170,170,210,230,220,300,350,380,330,320,390,420,390,460,450,470,440,440,510,560,560,560,550,570,570,560,560,490,440,330,450,480,570,630,660,700,720,710,730,720,710,730
0,0,0,0,0,0,0,0,0,0,0,0,0,0,0,0,0,0,0,0,0,0,0,0,0,0,0,0,0,0,0,0,0,0,0,0,0,0,0,0,0,0,0,0,0,0,0,0,0,0,0,0,0,0,0,0,0,0,0,0,0,0,0,0,0,0,0,0,0,0,0,0,0,0,0,0,0,0,0,0,0,0,0,90,230,210,150,240,240,320,390,470,460,490,610,800,950,1060,1110,960,1130,1250,1330,1030,700,580,530,480,300,300,300,260,450,520,290,430,450,220,110,240,440,470,500,580,840,730,550,430,660,650,770,840,990,1030,930,910,920,990,730,730,800,800,600,400,350,250,80,30,100,310,430,380,140,140,110,90,110,140,280,500,530,370,430,510,610,750,830,690,540,370,400,210,380,460,520,610,760,740,840,810,990,1040,1060,990,1000,980,820,810,790,730,770,950,1060,970,840,800,740,680,610,690,770,1020,770,550,410,340,320,310,300,280,300,340,260,240,280,400,270,250,310,280,280,250,220,240,210,190,210,180,180,210,160,190,170,190,140,160,170,180,210,260,290,330,400,610,1040,1130,1110,1030,1020,950,870,970,1020,980,940,920,870,810,760,680,610,490,500,420,350,180,290,370,460,560,640,800,730,630,650,420,400,430,510,630,770,970,1410,1860,1810,1750,1780,1800,1790,1770,1500,1660,1590,1410,1300,1240,1200,1140,1110,1110,1040,860,690,500,750,770,530,370,510,260,150,360,680,640,550,480,400,350,350,270,190,40,0,0,40,50,0,100,440,370,270,280,450,620,570,440,380,400,540,640,570,430,380,340,230,90,70,60,10,10,20,20,20,20,0,20,10,10,0,0,0,0,0,0,0,0,0,0,0,0,0,0,0,0,10,70,20,30,20,30,10,20,0,0,30,10,40,110,120,230,260,360,370,360,320,290,280,270,260,250,210,170,150,180,140,120,130,130,180,170,230,210,220,240,230,140,70,100,90,160,220,230,180,250,310,540,460,380,350,250,240,290,440,520,550,530,470,470,410,400,450,570,560,690,620,570,490,420,400,520,550,480,440,420,360,280,320,340,290,230,210,210,220,220,210,220,220,210,210,210,170,160,190,210,230,200,310,370,400,360,360,400,400,450,440,440,430,440,510,530,560,550,550,520,550,590,520,510,530,400,390,480,540,560,610,630,690,700,740,720,720,730,740
0,0,0,0,0,0,0,0,0,0,0,0,0,0,0,0,0,0,0,0,0,0,0,0,0,0,0,0,0,0,0,0,0,0,0,0,0,0,0,0,0,0,0,0,0,0,0,0,0,0,0,0,0,0,0,0,0,0,0,0,0,0,0,0,0,0,0,0,0,0,0,0,0,0,0,0,0,0,0,0,0,0,0,120,260,480,500,430,410,300,340,310,490,600,650,730,1000,1030,1190,1240,1320,1400,1230,940,670,670,420,310,340,410,220,230,380,560,330,510,490,260,90,110,190,370,430,670,760,710,430,390,480,540,750,820,970,1040,880,770,890,850,610,580,630,720,600,430,230,190,100,40,70,140,380,180,60,90,70,160,120,330,360,410,650,580,410,540,590,650,560,560,450,290,260,290,350,360,570,590,640,820,880,1060,1030,1030,1020,950,920,980,910,830,740,740,700,850,970,940,910,820,770,750,610,740,970,1030,710,610,400,380,360,310,290,260,300,380,330,240,280,400,280,280,370,280,240,240,240,230,230,190,200,150,150,160,160,170,160,150,150,160,160,190,210,270,290,380,510,850,1050,1130,1110,1040,1010,930,820,990,1020,1000,960,940,890,810,740,660,580,410,410,320,240,230,320,310,470,580,630,730,730,620,630,480,440,480,570,680,810,980,1570,1850,1760,1730,1730,1730,1710,1650,1690,1650,1500,1370,1220,1160,1190,1110,1110,1150,1070,1010,890,620,440,550,640,450,290,190,380,720,670,630,530,450,380,360,320,330,180,30,0,30,50,10,0,200,430,300,250,280,490,620,580,440,380,380,440,590,520,410,340,230,150,250,100,50,10,0,20,10,0,10,20,40,10,0,10,0,0,0,0,0,0,0,0,0,0,0,0,0,0,10,70,20,10,0,0,30,30,20,0,10,0,30,10,80,160,280,350,410,430,330,300,240,230,240,240,220,200,200,210,200,230,230,170,110,90,170,180,180,170,180,150,110,40,60,150,200,210,190,200,230,270,480,550,290,340,280,220,240,360,450,570,540,440,420,410,430,490,560,630,680,670,680,510,590,450,490,550,440,460,400,330,280,340,340,300,280,260,270,220,200,200,200,210,220,200,200,160,160,160,170,220,220,330,380,410,390,360,380,390,420,450,420,450,500,530,540,550,540,500,510,530,550,530,480,500,340,450,500,570,620,660,640,700,710,730,700,710,710,720
