1530,1620,1690,1750,1760,1700,1720,1820,1790,1700,1650,1670,1590,1520,1450,1410,1410,1370,1330,1430,1380,1390,1390,1410,1450,1430,1430,1460,1530,1610,1540,1510,1580,1580,1620,1650,1590,1640,1670,1730,1770,1770,1730,1750,1740,1830,1790,1700,1670,1690,1690,1700,1740,1740,1740,1760,1760,1830,1850,1830,1870,1880,1890,1810,1920,1750,1680,1740,1760,1750,1820,1730,1700,1710,1740,1750,1750,1760,1780,1780,1780,1840,1860,1800,1830,1770,1810,1830,1880,1870,1880,1900,1870,1810,1800,1810,1750,1750,1740,1690,1680,1630,1640,1680,1620,1630,1560,1510,1590,1600,1520,1580,1420,1410,1440,1490,1530,1590,1580,1710,1630,1560,1500,1530,1500,1560,1600,1590,1550,1520,1480,1540,1490,1500,1600,1640,1640,1640,1580,1480,1420,1420,1420,1460,1450,1420,1400,1380,1400,1400,1380,1370,1350,1320,1330,1330,1390,1390,1380,1380,1360,1360,1310,1320,1330,1330,1340,1400,1420,1500,1550,1520,1530,1480,1480,1490,1490,1470,1480,1490,1510,1570,1580,1520,1590,1590,1680,1610,1580,1570,1600,1610,1620,1650,1650,1670,1670,1660,1700,1690,1680,1650,1610,1670,1670,1690,1690,1660,1630,1790,1760,1700,1680,1640,1650,1630,1650,1720,1690,1680,1700,1720,1690,1640,1630,1690,1710,1760,1750,1830,1740,1820,1770,1820,1870,1830,1880,1940,1860,1850,1840,1850,1840,1740,1800,1890,1860,1850,1880,1880,1800,1770,1740,1740,1760,1760,1780,1810,1840,1820,1820,1890,1940,1930,1870,2060,2130,2050,2160,2080,2080,2110,2160,2140,1970,1930,1860,1840,1770,1770,1770,1730,1680,1670,1640,1630,1630,1620,1610,1590,1600,1580,1600,1650,1570,1620,1550,1560,1570,1570,1590,1600,1620,1670,1710,1710,1620,1640,1600,1610,1670,1710,1580,1600,1610,1630,1630,1620,1660,1760,1710,1680,1700,1660,1620,1580,1520,1500,1460,1420,1380,1360,1330,1430,1330,1300,1290,1280,1330,1250,1220,1210,1190,1180,1220,1260,1190,1210,1150,1170,1230,1170,1120,1130,1110,1130,1090,1040,1040,1060,1060,1030,1000,1040,1020,1100,1020,1020,1000,1100,1080,1110,1040,1090,1100,1140,1090,1150,1120,1100,1070,1090,1120,1110,1080,1070,1060,1070,1080,1090,1030,1070,1080,1100,1120,1090,1070,1050,1040,1010,1010,1020,1000,980,1020,1000,1110,1080,1100,1110,990,1000,1120,1110,1100,1110,1050,1080,1060,1050,1060,1080,1070,1050,1010,1010,930,920,910,930,930,920,930,910,930,930,890,910,910,930,920,930,920,900,880,920,910,910,960,1030,1170,1230,1230,1250,1260,1190,1210,1230,1270,1270,1260,1280,1200,1240,1250,1300,1240,1250,1270,1260,1280,1230,1250,1240,1280,1260,1130,1190,1270,1270,1250,1270,1100,1090,1090,1160,1250,1140,1140,1210,1310,1270,1350,1240,1150,1180,1190,1170,1190,1180,1140,1180,1070,1090,1070,1090,1080,1180,1140,1160,1220,1240,1250
1520,1620,1660,1680,1770,1780,1750,1700,1680,1670,1650,1610,1600,1540,1480,1430,1420,1400,1360,1420,1370,1370,1370,1380,1420,1460,1460,1470,1540,1610,1600,1670,1640,1630,1660,1670,1600,1660,1700,1730,1770,1750,1800,1750,1760,1810,1760,1680,1670,1710,1700,1710,1750,1750,1760,1760,1750,1740,1790,1850,1770,1860,1860,1830,1850,1730,1710,1750,1770,1780,1770,1750,1740,1730,1760,1750,1760,1760,1770,1760,1750,1800,1870,1830,1820,1760,1780,1860,1860,1920,1880,1900,1830,1820,1790,1770,1760,1730,1740,1740,1690,1650,1620,1680,1700,1640,1600,1540,1520,1530,1490,1440,1420,1450,1470,1530,1560,1590,1600,1690,1690,1620,1520,1530,1510,1650,1620,1560,1590,1520,1500,1530,1520,1500,1560,1540,1630,1560,1570,1460,1460,1480,1460,1520,1440,1470,1440,1420,1420,1440,1430,1420,1380,1350,1340,1350,1400,1390,1390,1420,1380,1350,1330,1320,1350,1330,1320,1370,1410,1470,1530,1510,1460,1440,1410,1400,1400,1390,1440,1470,1480,1530,1580,1530,1620,1600,1600,1610,1590,1560,1590,1600,1620,1600,1660,1660,1630,1660,1670,1680,1710,1630,1620,1660,1650,1670,1690,1640,1600,1720,1790,1680,1630,1620,1600,1610,1610,1670,1700,1710,1710,1690,1730,1680,1630,1630,1680,1720,1730,1740,1750,1790,1790,1840,1890,1830,1870,1840,1880,1840,1820,1840,1730,1720,1710,1710,1790,1780,1790,1850,1780,1750,1740,1770,1790,1790,1780,1930,1860,1860,1930,2010,2010,2020,1970,2090,2170,2140,2100,2100,2080,2070,2140,2160,2040,1950,1860,1800,1770,1720,1730,1730,1650,1660,1620,1660,1620,1620,1620,1630,1590,1610,1580,1560,1580,1570,1560,1570,1580,1610,1590,1580,1630,1670,1720,1690,1660,1650,1630,1630,1680,1710,1590,1640,1640,1620,1650,1630,1660,1680,1650,1690,1730,1690,1640,1590,1540,1500,1450,1440,1410,1370,1340,1330,1330,1280,1280,1250,1240,1230,1220,1240,1200,1190,1180,1250,1230,1210,1200,1210,1210,1190,1220,1130,1120,1150,1080,1050,1040,1050,1050,1050,1040,1040,1050,1040,1020,1050,1030,1090,1080,1050,1060,1080,1110,1130,1090,1150,1150,1080,1100,1070,1130,1150,1090,1080,1080,1080,1090,1090,1060,1050,1100,1100,1120,1060,1050,1050,1030,1020,1020,1010,1000,1000,1020,1020,1110,1120,1090,1040,1010,1000,1140,1110,1100,1130,1100,1040,1040,1080,1090,1110,960,950,1020,1020,920,930,920,930,920,930,940,960,910,930,900,900,920,910,930,970,930,920,900,960,920,0,910,1010,1240,1250,1200,1220,1260,1190,1260,1240,1250,1190,1300,1280,1210,1250,1250,1250,1220,1280,1290,1300,1260,1260,1240,1260,1200,1220,1180,1190,1290,1250,1120,1110,1160,1100,1130,1130,1120,1140,1170,1120,1240,1310,1330,1130,1200,1220,1200,1200,1200,1190,1150,1090,1080,1100,1090,1080,1070,1090,1120,1140,1220,1170,1230
1570,1630,1640,1670,1810,1710,1720,1690,1700,1680,1660,1640,1580,1560,1530,1590,1480,1510,1390,1360,1440,1390,1390,1380,1430,1420,1420,1480,1530,1620,1610,1690,1740,1730,1690,1650,1650,1700,1770,1760,1790,1790,1890,1880,1880,1790,1820,1720,1740,1740,1730,1710,1710,1820,1780,1750,1720,1750,1750,1820,1770,1810,1780,1760,1710,1710,1740,1780,1790,1780,1780,1760,1760,1740,1780,1800,1790,1760,1760,1770,1760,1840,1850,1870,1850,1830,1800,1800,1800,1790,1800,1840,1830,1800,1780,1730,1740,1710,1730,1660,1690,1650,1610,1790,1840,1640,1560,1520,1490,1440,1430,1430,1480,1540,1480,1520,1590,1600,1640,1600,1580,1560,1580,1540,1500,1590,1700,1690,1600,1540,1540,1550,1520,1520,1540,1540,1580,1530,1520,1430,1470,1500,1460,1480,1510,1480,1430,1430,1410,1420,1420,1410,1420,1370,1350,1400,1440,1390,1390,1440,1400,1360,1370,1360,1400,1340,1350,1380,1400,1420,1440,1470,1400,1390,1370,1410,1390,1390,1370,1500,1430,1470,1520,1540,1590,1600,1630,1620,1590,1580,1580,1570,1600,1580,1640,1620,1650,1670,1630,1690,1680,1600,1590,1630,1630,1660,1650,1640,1560,1700,1770,1610,1590,1590,1660,1670,1640,1660,1680,1690,1680,1700,1730,1690,1690,1620,1630,1700,1750,1750,1780,1750,1790,1820,1820,1820,1820,1810,1790,1820,1820,1800,1710,1770,1750,1670,1700,1710,1740,1760,1740,1740,1780,1800,1870,1800,1810,1830,1940,1910,1950,1960,2000,2040,2050,2030,2030,2060,2150,2100,2040,2090,2130,2160,2080,1960,1860,1790,1760,1690,1680,1710,1650,1650,1660,1630,1660,1680,1670,1610,1570,1650,1690,1580,1580,1600,1580,1600,1630,1630,1700,1640,1760,1740,1750,1680,1680,1680,1650,1620,1670,1640,1590,1620,1640,1660,1650,1670,1670,1690,1680,1700,1800,1670,1660,1600,1570,1540,1490,1460,1420,1400,1350,1340,1310,1300,1290,1340,1290,1240,1220,1210,1180,1200,1240,1270,1220,1230,1200,1180,1180,1210,1150,1120,1130,1090,1080,1030,1030,1070,1050,1060,1040,1020,1030,1020,1030,1020,1090,1100,1050,1090,1070,1070,1080,1150,1100,1150,1180,1080,1090,1100,1200,1170,1160,1090,1090,1080,1060,1080,1090,1080,1030,1070,1170,1120,1100,1110,1000,1010,1020,1020,990,1010,1020,1010,1050,1110,1030,1050,1020,980,1100,1100,1090,1070,990,1080,1100,1100,1090,1080,950,950,1010,940,930,930,930,920,940,910,900,930,910,910,940,910,920,950,930,940,920,920,930,930,900,0,0,1040,1260,1180,1220,1230,1260,1300,1300,1300,1310,1240,1270,1280,1290,1300,1240,1250,1240,1250,1270,1270,1220,1190,1230,1150,1150,1260,1270,1260,1280,1220,1240,1200,1200,1120,1100,1120,1150,1120,1120,1130,1120,1320,1320,1250,1180,1180,1220,1220,1220,1180,1180,1120,1060,1060,1160,1070,1070,1080,1110,1140,1120,1130,1220
1630,1630,1640,1690,1800,1790,1750,1700,1680,1660,1630,1590,1700,1670,1670,1680,1520,1490,1390,1350,1420,1380,1410,1390,1430,1420,1450,1530,1600,1660,1700,1750,1720,1680,1700,1670,1660,1720,1750,1780,1800,1820,1870,1890,1750,1760,1710,1690,1750,1770,1740,1710,1730,1750,1760,1760,1740,1830,1770,1800,1800,1780,1760,1730,1730,1740,1750,1770,1810,1790,1760,1770,1800,1770,1800,1790,1830,1760,1760,1770,1760,1820,1870,1870,1860,1880,1840,1810,1820,1780,1830,1830,1810,1770,1770,1700,1720,1650,1670,1600,1640,1670,1640,1770,1660,1580,1490,1450,1440,1450,1470,1510,1510,1570,1530,1550,1550,1580,1640,1590,1570,1570,1650,1550,1540,1600,1670,1660,1550,1570,1540,1550,1540,1540,1570,1560,1530,1530,1490,1470,1490,1510,1470,1490,1490,1450,1440,1410,1380,1380,1390,1350,1330,1360,1400,1410,1420,1450,1450,1470,1430,1390,1370,1390,1390,1320,1350,1370,1420,1360,1380,1430,1350,1350,1390,1390,1370,1390,1400,1570,1390,1420,1470,1530,1580,1620,1640,1620,1590,1600,1580,1600,1560,1590,1610,1600,1640,1670,1630,1680,1690,1600,1580,1630,1650,1720,1680,1630,1570,1590,1660,1620,1620,1610,1640,1630,1660,1680,1680,1690,1700,1700,1720,1730,1710,1660,1590,1640,1690,1740,1760,1810,1800,1820,1820,1760,1790,1770,1760,1800,1800,1740,1760,1760,1710,1650,1710,1710,1800,1710,1780,1820,1780,1800,1800,1800,1800,1800,1820,1880,1920,1970,2060,2030,1990,1970,2000,2020,2060,2060,2010,2090,2180,2080,2110,1940,1870,1760,1820,1770,1670,1680,1680,1690,1660,1650,1630,1630,1710,1630,1600,1680,1660,1670,1630,1660,1610,1620,1660,1730,1700,1660,1710,1750,1730,1720,1740,1710,1640,1720,1730,1620,1610,1620,1650,1670,1680,1680,1710,1710,1710,1750,1730,1680,1660,1630,1600,1570,1510,1480,1440,1390,1340,1330,1400,1330,1350,1370,1330,1260,1230,1270,1280,1290,1290,1260,1270,1250,1200,1180,1150,1110,1130,1120,1120,1090,1050,1030,1040,1050,1060,1050,1050,1070,1010,1030,1040,1030,1090,1050,1100,1080,1140,1080,1080,1170,1160,1180,1150,1160,1170,1180,1170,1160,1170,1100,1070,1090,1060,1050,1070,1070,1070,1050,1060,1040,1030,1000,1000,990,1000,990,990,1000,1010,990,1030,1140,1000,1000,1080,1000,1120,1100,1090,1100,1030,1080,1080,1110,1120,1080,970,1020,940,920,940,920,900,920,910,900,910,960,950,910,910,920,940,930,930,930,910,910,960,920,940,910,0,980,1120,1160,1180,1240,1290,1340,1340,1260,1230,1290,1300,1190,1230,1230,1200,1210,1230,1230,1260,1240,1110,1090,1080,1100,1110,1230,1270,1250,1230,1240,1230,1230,1170,1090,1110,1100,1100,1110,1130,1100,1110,1320,1300,1280,1200,1210,1240,1230,1250,1230,1160,1110,1100,1060,1100,1070,1050,1090,1080,1120,1110,1140,1140
1660,1670,1650,1690,1820,1780,1690,1690,1650,1640,1570,1580,1670,1680,1690,1580,1450,1430,1380,1370,1400,1400,1440,1400,1430,1450,1490,1580,1530,1580,1590,1580,1620,1690,1710,1690,1660,1710,1730,1800,1800,1810,1870,1850,1740,1740,1700,1730,1750,1770,1760,1750,1820,1720,1800,1770,1790,1810,1790,1780,1820,1800,1760,1730,1740,1770,1750,1780,1790,1800,1780,1790,1790,1780,1800,1800,1790,1780,1740,1750,1770,1870,1850,1860,1880,1820,1800,1780,1810,1840,1810,1800,1780,1760,1710,1690,1640,1650,1620,1650,1550,1600,1540,1660,1610,1510,1530,1460,1440,1520,1470,1530,1570,1600,1610,1540,1560,1590,1630,1600,1620,1610,1660,1580,1580,1610,1630,1620,1590,1580,1550,1600,1560,1570,1580,1610,1610,1540,1500,1470,1490,1520,1500,1520,1500,1460,1430,1390,1380,1370,1340,1370,1370,1380,1380,1380,1440,1450,1460,1480,1410,1420,1410,1390,1370,1320,1430,1320,1360,1340,1350,1350,1350,1340,1340,1370,1370,1390,1420,1410,1410,1450,1510,1590,1580,1600,1610,1610,1610,1610,1560,1550,1520,1560,1600,1550,1620,1630,1600,1620,1590,1560,1610,1700,1690,1670,1600,1560,1580,1560,1610,1560,1600,1630,1670,1680,1690,1720,1720,1730,1660,1720,1690,1760,1720,1660,1580,1680,1740,1750,1740,1740,1800,1830,1770,1760,1750,1740,1760,1780,1740,1740,1700,1690,1660,1660,1670,1690,1730,1750,1770,1790,1780,1790,1830,1780,1770,1790,1850,1850,1870,2020,2090,2020,2110,2010,1990,2030,1990,1970,1980,2050,2110,2070,2070,1980,1840,1740,1800,1710,1740,1770,1810,1710,1670,1640,1710,1660,1650,1640,1610,1590,1630,1620,1600,1600,1630,1640,1710,1760,1700,1730,1760,1770,1720,1740,1740,1770,1730,1730,1720,1620,1620,1630,1630,1670,1700,1730,1690,1700,1710,1690,1710,1660,1630,1620,1600,1570,1500,1460,1430,1390,1370,1380,1370,1340,1350,1270,1310,1360,1340,1310,1290,1270,1270,1270,1220,1250,1230,1140,1110,1100,1150,1160,1120,1080,1060,1060,1030,1030,1080,1030,1050,1050,1030,1060,1070,1030,1090,1070,1070,1100,1140,1110,1100,1150,1190,1140,1100,1130,1160,1140,1190,1150,1140,1140,1090,1080,1080,1070,1130,1120,1060,1050,1050,1050,1010,1000,1020,1000,1000,970,990,990,1000,970,970,1060,1000,1000,1050,1120,1070,1090,1060,1020,1100,1020,1060,1080,990,1090,1030,1020,940,990,930,910,910,930,890,920,920,930,920,1000,920,930,960,930,960,920,940,940,910,890,920,940,0,0,1080,1200,1270,1280,1270,1300,1320,1290,1270,1270,1300,1260,1220,1210,1260,1230,1200,1220,1220,1250,1220,1080,1070,1110,1090,1090,1100,1300,1300,1300,1260,1120,1120,1100,1100,1090,1100,1120,1110,1160,1290,1280,1310,1310,1330,1270,1170,1220,1230,1200,1190,1080,1090,1070,1140,1130,1090,1170,1130,1100,1150,1170,1120
1670,1690,1680,1680,1750,1770,1670,1700,1620,1610,1570,1580,1640,1650,1630,1580,1440,1450,1390,1390,1360,1410,1440,1400,1440,1450,1470,1570,1590,1600,1630,1530,1620,1660,1730,1690,1720,1730,1750,1790,1840,1800,1780,1770,1750,1740,1710,1740,1780,1760,1780,1760,1760,1770,1800,1780,1780,1800,1790,1790,1800,1780,1770,1740,1730,1760,1770,1780,1810,1810,1800,1810,1800,1800,1800,1790,1770,1750,1740,1770,1790,1840,1850,1810,1830,1770,1770,1750,1860,1820,1820,1800,1760,1750,1670,1730,1750,1680,1750,1710,1590,1550,1550,1610,1520,1520,1500,1430,1510,1580,1490,1540,1590,1630,1610,1580,1670,1680,1650,1670,1630,1680,1620,1580,1630,1610,1660,1620,1610,1600,1550,1600,1620,1550,1610,1560,1550,1560,1490,1490,1510,1520,1500,1500,1470,1430,1420,1420,1390,1370,1390,1440,1420,1400,1360,1390,1490,1450,1460,1490,1470,1450,1410,1380,1330,1320,1420,1390,1350,1340,1340,1350,1330,1370,1360,1340,1360,1370,1380,1400,1420,1490,1500,1570,1550,1590,1600,1630,1630,1610,1570,1520,1490,1570,1590,1550,1600,1620,1550,1570,1580,1580,1600,1610,1600,1580,1530,1530,1550,1580,1620,1650,1610,1640,1660,1690,1680,1690,1690,1660,1630,1660,1710,1760,1730,1620,1620,1610,1680,1770,1770,1770,1800,1810,1770,1830,1840,1750,1840,1710,1760,1730,1690,1640,1690,1710,1690,1720,1740,1760,1770,1750,1740,1810,1810,1810,1750,1830,1840,1960,2000,2100,2110,2110,2130,2130,1970,1980,2160,2120,1950,2110,1890,1980,1920,1850,1830,1750,1700,1730,1760,1810,1820,1720,1670,1640,1710,1720,1650,1640,1610,1570,1610,1670,1570,1590,1630,1690,1700,1710,1680,1780,1760,1790,1800,1840,1820,1770,1760,1680,1640,1640,1640,1620,1630,1640,1690,1740,1710,1730,1710,1740,1690,1650,1600,1590,1580,1540,1470,1440,1400,1390,1390,1410,1390,1320,1310,1270,1360,1350,1320,1310,1330,1300,1290,1270,1230,1200,1160,1120,1100,1100,1180,1140,1120,1060,1040,1050,1050,1040,1040,1040,1020,1040,1030,1030,1060,1050,1060,1090,1080,1130,1150,1160,1170,1160,1110,1130,1100,1120,1090,1090,1160,1110,1100,1110,1100,1090,1090,1080,1120,1090,1080,1080,1050,1020,1040,1020,1010,1010,990,970,990,990,990,970,990,990,1040,1040,1100,1110,1050,1110,1090,1080,1060,990,1040,1020,970,1050,1000,990,1000,1010,910,910,920,920,920,930,930,940,900,1030,920,920,920,920,910,930,940,910,930,910,920,920,940,0,920,1150,1200,1260,1260,1310,1300,1330,1300,1300,1330,1240,1230,1270,1290,1260,1220,1200,1180,1220,1230,1050,1070,1060,1090,1060,1100,1170,1240,1280,1160,1130,1090,1120,1110,1120,1080,1090,1140,1310,1320,1300,1350,1310,1320,1340,1180,1230,1220,1210,1190,1120,1090,1070,1090,1120,1100,1130,1080,1120,1100,1110,1090
1630,1660,1680,1710,1700,1720,1640,1630,1580,1590,1620,1650,1680,1660,1610,1610,1560,1440,1410,1360,1370,1400,1420,1410,1420,1430,1460,1550,1570,1630,1590,1570,1700,1710,1750,1730,1750,1790,1770,1780,1810,1790,1780,1770,1770,1740,1700,1760,1800,1770,1810,1760,1750,1750,1750,1860,1780,1780,1780,1790,1780,1790,1750,1730,1720,1740,1760,1790,1810,1820,1810,1800,1830,1800,1790,1810,1780,1760,1710,1790,1820,1800,1850,1750,1730,1720,1750,1780,1770,1790,1780,1740,1710,1720,1700,1780,1740,1720,1790,1730,1720,1600,1510,1530,1520,1520,1440,1500,1560,1600,1540,1600,1610,1680,1680,1620,1650,1660,1770,1770,1670,1720,1580,1610,1650,1640,1670,1660,1630,1610,1590,1610,1610,1590,1600,1590,1580,1540,1530,1520,1510,1510,1510,1520,1460,1450,1400,1400,1410,1470,1430,1460,1450,1420,1360,1390,1450,1510,1480,1500,1470,1460,1410,1370,1360,1350,1390,1470,1410,1360,1350,1350,1360,1380,1370,1350,1370,1370,1380,1390,1420,1500,1580,1610,1580,1570,1610,1610,1660,1550,1540,1530,1500,1530,1550,1560,1570,1580,1520,1520,1620,1580,1550,1530,1550,1500,1530,1540,1550,1590,1630,1650,1650,1650,1670,1710,1720,1730,1650,1670,1650,1670,1710,1750,1850,1670,1670,1610,1700,1750,1740,1830,1770,1790,1810,1770,1850,1790,1760,1730,1730,1680,1670,1660,1720,1760,1710,1720,1710,1710,1730,1710,1750,1810,1770,1780,1800,1820,1920,2050,2090,2110,2020,2090,2120,2130,1950,1990,2020,2150,1960,1880,1850,1810,1830,1830,1820,1720,1750,1820,1820,1800,1760,1640,1670,1680,1680,1650,1660,1640,1620,1560,1560,1550,1580,1600,1670,1680,1690,1710,1720,1720,1790,1810,1820,1860,1830,1800,1780,1700,1650,1620,1650,1620,1650,1660,1680,1720,1710,1700,1710,1680,1650,1650,1600,1590,1570,1530,1500,1430,1460,1430,1410,1400,1360,1330,1300,1400,1380,1360,1310,1310,1330,1220,1240,1260,1190,1170,1130,1120,1130,1110,1110,1090,1070,1050,1050,1050,1060,1040,1040,1020,1050,1040,1030,1030,1030,1040,1070,1060,1090,1140,1110,1140,1160,1130,1100,1110,1120,1100,1090,1120,1120,1100,1110,1110,1090,1160,1110,1070,1150,1090,1050,1040,1030,1050,1050,1020,1030,1010,1000,990,980,990,970,980,990,990,1030,1030,1120,1090,1130,1120,1090,1110,1050,1050,1040,980,1000,1030,1030,940,1070,920,930,960,920,920,920,900,920,910,900,990,1030,940,930,940,920,960,960,930,910,910,920,940,910,920,0,930,1030,1040,1140,1260,1290,1310,1320,1200,1220,1270,1190,1270,1250,1230,1210,1050,1060,1060,1090,1070,1080,1090,1110,1090,1100,1090,1200,1190,1120,1110,1100,1130,1100,1120,1120,1100,1240,1270,1320,1300,1300,1310,1330,1350,1310,1170,1220,1200,1140,1110,1100,1130,1160,1100,1130,1100,1120,1090,1130,1110,1150
1680,1650,1670,1700,1700,1690,1690,1660,1650,1670,1650,1700,1710,1670,1600,1600,1540,1490,1440,1380,1400,1370,1430,1400,1430,1460,1470,1480,1500,1550,1640,1690,1690,1750,1750,1770,1760,1800,1790,1780,1820,1810,1790,1810,1790,1770,1740,1770,1790,1780,1800,1800,1770,1770,1760,1830,1770,1770,1780,1770,1770,1760,1740,1730,1740,1740,1740,1750,1800,1820,1810,1810,1810,1790,1780,1790,1750,1750,1730,1790,1760,1750,1800,1730,1730,1750,1750,1810,1850,1780,1740,1770,1770,1780,1750,1800,1740,1770,1800,1780,1700,1570,1530,1590,1480,1450,1480,1560,1620,1610,1610,1610,1670,1680,1700,1640,1690,1780,1760,1770,1770,1730,1650,1610,1680,1680,1690,1700,1650,1650,1630,1660,1600,1610,1710,1620,1580,1570,1560,1520,1520,1530,1520,1490,1440,1440,1450,1440,1420,1470,1470,1460,1450,1430,1380,1390,1440,1510,1450,1490,1500,1490,1450,1400,1380,1340,1380,1440,1440,1420,1340,1330,1360,1350,1360,1390,1390,1360,1360,1380,1430,1520,1560,1570,1610,1600,1600,1640,1610,1550,1470,1510,1460,1480,1500,1510,1510,1510,1490,1500,1520,1540,1540,1520,1500,1490,1510,1580,1570,1590,1630,1660,1660,1660,1650,1690,1710,1760,1610,1680,1680,1680,1700,1740,1910,1810,1630,1590,1650,1660,1770,1850,1850,1790,1790,1760,1750,1810,1740,1700,1720,1630,1630,1680,1730,1800,1830,1710,1670,1700,1750,1750,1710,1750,1740,1780,1840,1830,2000,2120,2070,2020,1950,1970,2100,1980,1920,1940,2020,1990,1870,1810,1820,1800,1780,1810,1760,1800,1790,1760,1770,1780,1760,1650,1750,1750,1730,1710,1730,1650,1590,1570,1560,1580,1700,1620,1630,1750,1710,1710,1720,1710,1830,1780,1820,1790,1750,1770,1770,1660,1630,1640,1640,1650,1640,1680,1670,1720,1700,1680,1660,1660,1650,1620,1620,1610,1580,1550,1510,1490,1480,1440,1450,1430,1390,1340,1320,1320,1370,1370,1350,1320,1270,1220,1190,1170,1190,1170,1150,1120,1130,1130,1070,1080,1050,1030,1030,1060,1070,1040,1040,1040,1070,1040,1040,1090,1060,1080,1070,1050,1100,1220,1150,1190,1190,1110,1110,1130,1110,1110,1140,1140,1130,1110,1100,1080,1090,1080,1070,1050,1060,1050,1070,1060,1110,1040,1030,1020,1050,1000,990,980,1000,970,980,990,970,980,1070,1100,1100,1100,1100,1070,1110,1110,1080,1050,1020,940,950,1040,1040,960,940,960,930,960,930,930,930,930,930,910,930,920,1010,930,940,990,900,940,910,920,920,900,940,910,940,920,910,0,940,1130,1110,1260,1280,1320,1330,1290,1230,1320,1260,1230,1260,1230,1220,1020,1040,1050,1070,1080,1090,1110,1120,1160,1100,1110,1110,1190,1120,1120,1140,1100,1110,1110,1150,1280,1150,1200,1200,1250,1320,1330,1300,1360,1350,1240,1240,1230,1160,1120,1110,1120,1150,1120,1220,1100,1120,1110,1160,1100,1120
1690,1680,1660,1700,1720,1680,1720,1680,1660,1710,1690,1720,1700,1660,1670,1610,1620,1500,1460,1420,1390,1390,1430,1400,1420,1460,1490,1520,1520,1590,1620,1710,1770,1760,1800,1800,1780,1810,1810,1820,1830,1810,1820,1810,1810,1780,1780,1800,1810,1800,1800,1800,1810,1820,1770,1820,1810,1770,1760,1770,1740,1750,1760,1750,1730,1730,1730,1770,1800,1810,1810,1810,1790,1780,1780,1790,1760,1750,1710,1730,1740,1740,1740,1760,1750,1770,1810,1800,1850,1750,1740,1800,1890,1870,1780,1810,1780,1800,1790,1730,1660,1660,1620,1550,1520,1480,1490,1540,1620,1650,1630,1690,1680,1700,1690,1640,1770,1790,1740,1830,1770,1770,1620,1650,1690,1700,1720,1720,1700,1660,1650,1660,1610,1720,1720,1630,1590,1550,1540,1500,1560,1560,1520,1490,1470,1480,1510,1430,1470,1500,1450,1470,1410,1390,1400,1390,1450,1530,1450,1490,1500,1500,1450,1390,1390,1370,1370,1410,1400,1350,1350,1390,1350,1330,1370,1380,1360,1360,1380,1390,1410,1440,1480,1550,1610,1590,1570,1590,1620,1460,1480,1470,1450,1450,1500,1490,1520,1550,1490,1510,1510,1490,1530,1500,1490,1540,1530,1550,1550,1570,1620,1620,1670,1630,1620,1610,1650,1670,1630,1690,1700,1710,1720,1720,1900,1890,1760,1600,1590,1630,1810,1840,1850,1870,1810,1790,1770,1790,1710,1690,1640,1700,1620,1670,1710,1790,1820,1790,1760,1730,1760,1750,1740,1760,1760,1850,1830,1860,2030,2040,2060,1980,1920,1930,1960,1930,1880,1930,1950,1890,1850,1820,1860,1880,1900,1860,1900,1880,1840,1760,1710,1740,1770,1720,1670,1770,1750,1680,1710,1600,1560,1620,1610,1580,1710,1660,1620,1670,1690,1740,1690,1700,1750,1770,1740,1710,1700,1700,1660,1650,1650,1610,1630,1630,1620,1630,1670,1700,1680,1650,1660,1660,1650,1640,1620,1600,1590,1560,1540,1520,1490,1460,1480,1470,1410,1350,1370,1340,1400,1360,1330,1320,1210,1220,1220,1200,1190,1170,1140,1120,1110,1130,1090,1080,1040,1060,1060,1050,1030,1030,1030,1040,1040,1020,1090,1070,1060,1080,1090,1160,1190,1210,1210,1210,1180,1140,1100,1110,1110,1110,1150,1180,1130,1090,1120,1110,1080,1080,1090,1090,1060,1080,1060,1060,1040,1050,1030,1030,1030,1000,1000,1010,1000,1000,1000,970,990,970,1080,1040,1090,1090,1090,1040,1070,1080,1070,970,960,970,950,970,960,940,980,950,1020,950,940,940,1010,940,940,910,900,950,920,980,1010,1030,940,930,910,910,930,920,910,920,930,920,960,0,920,990,1100,1210,1260,1270,1280,1280,1300,1270,1280,1260,1250,1240,1210,1030,1070,1170,1230,1250,1240,1270,1260,1300,1160,1080,1120,1120,1150,1130,1140,1100,1100,1120,1120,1110,1180,1240,1200,1270,1220,1350,1330,1330,1300,1300,1260,1210,1190,1140,1140,1120,1180,1210,1260,1170,1120,1150,1120,1110,1120
1700,1700,1690,1700,1720,1720,1730,1730,1690,1730,1740,1750,1720,1700,1650,1640,1610,1560,1450,1430,1380,1390,1420,1400,1450,1460,1500,1530,1550,1600,1640,1760,1830,1790,1820,1820,1780,1810,1820,1830,1840,1820,1820,1830,1800,1780,1760,1810,1820,1820,1850,1870,1790,1750,1780,1810,1800,1760,1780,1770,1770,1740,1740,1730,1730,1730,1750,1770,1780,1810,1790,1770,1780,1770,1860,1790,1760,1770,1710,1750,1760,1740,1760,1780,1750,1780,1770,1800,1880,1780,1750,1880,1920,1870,1830,1830,1830,1840,1790,1740,1720,1660,1570,1500,1480,1650,1550,1500,1580,1650,1670,1680,1710,1710,1700,1670,1790,1830,1760,1810,1840,1830,1640,1690,1730,1720,1760,1740,1680,1690,1680,1680,1660,1720,1750,1620,1600,1560,1540,1500,1590,1660,1550,1490,1500,1450,1500,1470,1450,1450,1440,1430,1400,1400,1390,1420,1450,1540,1490,1540,1500,1500,1450,1440,1390,1380,1340,1370,1390,1350,1350,1340,1340,1360,1370,1370,1370,1370,1400,1380,1390,1430,1440,1490,1590,1590,1540,1510,1450,1450,1440,1420,1450,1480,1500,1500,1480,1570,1540,1480,1510,1510,1520,1430,1490,1490,1510,1540,1510,1560,1560,1570,1620,1600,1590,1580,1590,1630,1630,1690,1680,1710,1720,1700,1840,1840,1740,1670,1540,1640,1730,1800,1850,1820,1870,1800,1820,1710,1670,1650,1600,1670,1660,1690,1700,1780,1840,1830,1800,1770,1820,1840,1920,1810,1800,1800,1820,1950,2010,2000,1980,2010,1870,1910,1930,1910,1880,1940,1880,1870,1850,1880,1890,1980,2000,1910,1970,1850,1820,1760,1700,1720,1680,1660,1610,1650,1630,1610,1660,1590,1530,1660,1670,1650,1680,1650,1630,1640,1690,1660,1670,1690,1770,1770,1760,1670,1660,1680,1670,1660,1650,1620,1610,1620,1620,1640,1660,1650,1670,1660,1640,1650,1680,1640,1600,1600,1600,1580,1550,1520,1490,1460,1460,1410,1390,1400,1350,1320,1360,1410,1350,1340,1240,1230,1230,1240,1190,1150,1140,1110,1120,1110,1100,1090,1050,1050,1040,1050,1050,1040,1060,1070,1070,1030,1070,1130,1070,1070,1090,1070,1200,1210,1190,1180,1180,1110,1130,1120,1110,1110,1120,1140,1130,1120,1120,1100,1100,1110,1060,1100,1070,1130,1090,1060,1050,1060,1040,1020,1040,1010,1000,1000,1010,1020,1000,970,980,1030,1050,1110,1040,1090,1100,1080,1010,1060,970,970,970,980,1000,970,990,1020,1020,990,1010,960,980,920,1040,930,950,920,920,920,910,960,1000,1020,930,950,910,920,950,940,920,900,910,920,950,0,0,930,1050,1180,1270,1300,1310,1300,1280,1290,1290,1280,1240,1260,1130,1050,1170,1130,1140,1230,1250,1290,1310,1300,1330,1180,1130,1130,1150,1150,1120,1110,1090,1130,1190,1120,1180,1160,1250,1340,1180,1310,1310,1340,1330,1330,1260,1240,1200,1160,1140,1090,1170,1260,1260,1190,1160,1200,1160,1130,1140
1710,1730,1730,1740,1740,1740,1720,1730,1720,1740,1820,1830,1750,1710,1690,1650,1630,1590,1510,1440,1370,1370,1370,1460,1440,1490,1540,1540,1610,1670,1740,1760,1820,1820,1810,1820,1790,1840,1830,1820,1840,1830,1820,1800,1800,1780,1780,1810,1820,1810,1820,1840,1760,1780,1800,1830,1840,1780,1800,1770,1810,1720,1750,1770,1750,1760,1760,1780,1790,1800,1800,1790,1770,1730,1780,1760,1730,1750,1700,1740,1770,1780,1770,1790,1760,1790,1790,1810,1860,1790,1800,1900,1910,1850,1840,1870,1860,1840,1790,1720,1680,1610,1530,1510,1500,1630,1600,1530,1540,1590,1700,1700,1760,1760,1710,1680,1740,1850,1820,1820,1840,1840,1660,1720,1730,1750,1760,1800,1730,1710,1710,1700,1640,1680,1710,1640,1590,1610,1530,1570,1630,1600,1520,1520,1550,1460,1470,1460,1450,1470,1420,1430,1390,1400,1490,1500,1550,1520,1540,1580,1500,1490,1470,1430,1410,1370,1350,1350,1380,1360,1350,1340,1340,1350,1320,1370,1360,1350,1380,1380,1480,1440,1450,1510,1570,1590,1530,1470,1430,1450,1440,1460,1460,1500,1500,1560,1490,1490,1480,1490,1530,1560,1520,1460,1470,1480,1520,1520,1470,1510,1540,1540,1580,1520,1540,1520,1580,1590,1630,1660,1670,1780,1870,1870,1870,1840,1710,1570,1580,1600,1770,1800,1870,1850,1830,1770,1680,1640,1610,1610,1620,1630,1660,1700,1740,1780,1840,1860,1820,1800,1810,1860,1880,1800,1800,1810,1820,2020,1970,1990,1890,1870,1850,1890,1900,1890,1910,1870,1890,1870,1890,1890,1910,2010,2030,1950,1900,1850,1810,1750,1710,1680,1650,1650,1650,1640,1650,1600,1550,1540,1570,1580,1630,1670,1640,1610,1610,1610,1640,1660,1700,1650,1680,1740,1700,1680,1640,1680,1660,1640,1630,1620,1590,1600,1620,1640,1640,1660,1670,1660,1640,1620,1620,1620,1600,1580,1600,1600,1570,1540,1510,1500,1490,1440,1410,1380,1360,1320,1310,1360,1400,1260,1320,1220,1230,1210,1190,1160,1140,1140,1130,1100,1110,1110,1070,1050,1040,1050,1050,1060,1050,1130,1040,1040,1070,1080,1080,1070,1100,1100,1140,1240,1230,1220,1240,1130,1150,1120,1130,1110,1120,1120,1160,1120,1120,1110,1180,1120,1100,1080,1090,1090,1110,1060,1060,1070,1050,1030,1020,1000,1000,1010,1000,1010,1010,1020,1000,1000,1040,1090,1050,1090,1100,1020,960,970,970,980,980,970,970,970,970,1010,1030,1020,1050,1000,960,1000,920,960,930,940,910,900,940,950,1020,940,940,950,940,950,920,950,910,910,900,940,950,940,0,930,940,1050,1240,1270,1320,1280,1220,1270,1270,1270,1200,1210,1090,990,1040,1130,1090,1100,1270,1330,1180,1300,1280,1230,1110,1150,1130,1110,1170,1120,1080,1120,1110,1120,1160,1220,1280,1300,1250,1260,1330,1220,1220,1280,1270,1220,1200,1170,1140,1130,1230,1270,1190,1240,1240,1260,1220,1170,1140
1700,1710,1730,1750,1740,1750,1730,1750,1740,1780,1830,1830,1750,1720,1660,1590,1530,1520,1460,1490,1370,1370,1390,1490,1470,1540,1550,1550,1610,1700,1760,1780,1810,1810,1800,1790,1800,1840,1820,1810,1830,1820,1810,1830,1810,1790,1780,1810,1810,1820,1800,1810,1780,1820,1790,1790,1800,1770,1770,1800,1800,1780,1760,1840,1750,1800,1790,1840,1800,1810,1790,1780,1770,1770,1720,1750,1720,1740,1700,1730,1750,1800,1780,1790,1770,1800,1790,1810,1820,1830,1790,1860,1860,1860,1870,1870,1870,1820,1780,1730,1690,1560,1520,1550,1500,1600,1650,1600,1530,1570,1660,1730,1770,1780,1750,1720,1720,1800,1840,1870,1890,1740,1690,1720,1770,1780,1800,1810,1770,1720,1750,1680,1790,1800,1770,1770,1630,1640,1540,1600,1610,1560,1550,1560,1540,1500,1520,1480,1480,1470,1410,1440,1430,1400,1430,1470,1450,1470,1480,1580,1500,1510,1480,1450,1410,1380,1360,1340,1390,1360,1340,1340,1350,1340,1340,1370,1350,1380,1350,1440,1370,1400,1400,1440,1530,1520,1450,1430,1430,1420,1410,1450,1540,1460,1500,1510,1530,1510,1480,1460,1500,1560,1530,1460,1450,1460,1490,1470,1430,1470,1500,1490,1530,1510,1520,1510,1510,1550,1620,1590,1740,1850,1840,1850,1830,1740,1660,1530,1640,1690,1780,1830,1880,1870,1810,1690,1660,1650,1630,1670,1630,1710,1700,1760,1890,1790,1840,1830,1840,1920,1810,1900,1920,1920,1920,1940,1930,1900,1890,1860,1830,1840,1850,1880,1840,1870,1860,1860,1890,1910,1950,1970,1980,1980,1960,1900,1940,1830,1800,1770,1700,1710,1670,1670,1630,1610,1610,1610,1580,1570,1530,1600,1590,1610,1670,1680,1650,1710,1730,1730,1710,1630,1690,1710,1640,1650,1610,1660,1650,1660,1620,1600,1570,1620,1690,1690,1620,1660,1670,1660,1660,1630,1600,1600,1570,1540,1580,1600,1600,1540,1520,1510,1460,1440,1430,1410,1360,1350,1320,1340,1290,1240,1250,1210,1210,1210,1190,1170,1150,1140,1140,1130,1110,1090,1070,1070,1060,1060,1090,1050,1060,1080,1050,1090,1080,1080,1070,1110,1100,1090,1150,1180,1200,1210,1180,1110,1130,1150,1120,1140,1120,1150,1130,1130,1140,1170,1070,1110,1110,1080,1080,1080,1080,1060,1040,1030,1030,1090,1030,1010,1010,1010,1000,1030,1020,1000,990,1010,1090,1020,1090,1070,1030,1010,980,990,970,990,1000,980,1020,1040,980,970,1030,1030,1030,1010,1020,1030,960,910,950,940,940,900,920,920,920,940,930,950,930,920,950,930,900,920,910,930,960,950,940,0,920,960,1250,1290,1320,1280,1250,1200,1230,1220,1240,1140,1110,1070,1050,1090,1120,1170,1100,1230,1240,1310,1310,1290,1130,1120,1150,1120,1120,1140,1180,1120,1120,1120,1120,1180,1390,1210,1300,1360,1340,1270,1310,1280,1310,1270,1170,1160,1140,1120,1200,1270,1220,1190,1200,1190,1220,1130,1150
1680,1700,1740,1760,1740,1750,1760,1770,1760,1810,1820,1800,1740,1720,1670,1590,1550,1460,1480,1490,1370,1370,1380,1500,1510,1540,1560,1580,1650,1710,1760,1790,1790,1800,1820,1780,1790,1790,1810,1810,1830,1820,1850,1870,1830,1840,1790,1800,1810,1820,1820,1800,1770,1800,1800,1800,1780,1780,1740,1820,1770,1780,1760,1780,1780,1760,1790,1880,1820,1840,1790,1790,1750,1740,1730,1720,1710,1690,1690,1730,1770,1800,1790,1810,1770,1820,1790,1840,1830,1830,1800,1910,1840,1850,1870,1870,1840,1810,1790,1720,1650,1600,1520,1530,1540,1630,1690,1650,1520,1590,1630,1710,1790,1800,1780,1780,1780,1790,1830,1920,1800,1740,1690,1730,1780,1800,1830,1820,1800,1750,1740,1680,1720,1800,1760,1760,1660,1620,1560,1590,1620,1580,1580,1610,1560,1520,1550,1480,1490,1480,1450,1460,1430,1430,1410,1510,1480,1550,1540,1500,1520,1510,1480,1480,1450,1380,1370,1350,1350,1370,1340,1350,1340,1350,1340,1310,1350,1400,1380,1360,1370,1390,1390,1470,1500,1490,1420,1430,1470,1470,1470,1480,1480,1410,1470,1490,1530,1510,1480,1420,1460,1490,1470,1430,1440,1450,1490,1460,1440,1470,1490,1490,1520,1510,1490,1490,1520,1550,1540,1610,1630,1660,1810,1820,1810,1700,1600,1600,1640,1790,1910,1850,1890,1770,1800,1680,1630,1580,1640,1670,1650,1730,1880,1780,1950,1820,1860,1850,1830,1840,1950,1920,1920,1940,1910,1890,1880,1860,1870,1830,1780,1830,1870,1880,1890,1890,1910,1910,1930,1960,2080,2120,2070,2010,1910,1870,1880,1850,1790,1750,1730,1680,1690,1680,1650,1630,1590,1600,1590,1520,1510,1560,1600,1630,1580,1610,1640,1710,1720,1720,1670,1620,1650,1630,1590,1620,1620,1660,1650,1630,1610,1590,1580,1590,1590,1630,1650,1670,1720,1640,1640,1650,1650,1630,1590,1540,1560,1570,1570,1550,1510,1490,1470,1420,1420,1390,1380,1360,1310,1280,1270,1250,1210,1220,1230,1220,1170,1160,1160,1140,1120,1120,1090,1060,1040,1060,1050,1060,1050,1060,1070,1100,1030,1070,1110,1080,1080,1120,1110,1170,1180,1170,1190,1160,1120,1130,1130,1150,1130,1170,1130,1140,1130,1120,1120,1140,1150,1100,1100,1100,1080,1070,1100,1060,1030,1060,1050,1070,1050,1020,1030,1020,1000,1020,1010,990,1010,1040,1060,1080,1100,1070,1050,1000,1000,980,990,1050,1000,1020,1040,1060,1060,1110,1110,1020,1040,1070,1060,1040,950,940,910,940,920,930,910,920,930,910,930,940,940,920,940,920,910,910,930,920,940,910,920,0,0,950,1120,1240,1280,1260,1250,1220,1200,1160,1080,1070,990,1040,1080,1300,1210,1170,1150,1170,1260,1280,1280,1210,1260,1220,1220,1250,1260,1260,1120,1120,1100,1170,1120,1120,1230,1240,1320,1180,1290,1240,1300,1300,1300,1260,1180,1140,1120,1130,1140,1220,1210,1230,1240,1220,1250,1200,1150
1690,1720,1750,1770,1750,1750,1760,1780,1780,1860,1790,1790,1760,1700,1620,1570,1510,1460,1470,1460,1400,1370,1400,1470,1560,1570,1590,1640,1680,1720,1760,1800,1790,1770,1780,1760,1790,1790,1780,1800,1830,1820,1850,1860,1840,1840,1800,1800,1830,1820,1800,1830,1790,1790,1810,1790,1790,1770,1780,1750,1750,1740,1770,1780,1810,1770,1760,1880,1900,1830,1790,1750,1740,1730,1690,1680,1690,1730,1700,1730,1760,1790,1830,1800,1810,1800,1820,1820,1860,1840,1840,1960,1870,1870,1870,1850,1800,1760,1700,1630,1610,1530,1560,1480,1570,1680,1700,1650,1550,1660,1690,1750,1810,1830,1840,1850,1830,1850,1850,1850,1830,1790,1730,1730,1800,1850,1840,1870,1830,1790,1740,1740,1700,1820,1850,1840,1630,1590,1560,1630,1640,1580,1600,1610,1580,1550,1500,1520,1530,1500,1480,1480,1430,1450,1440,1540,1430,1540,1540,1570,1610,1550,1470,1440,1430,1360,1350,1340,1350,1360,1350,1360,1370,1330,1330,1340,1350,1380,1390,1390,1370,1370,1400,1420,1510,1440,1450,1410,1500,1480,1430,1420,1430,1390,1440,1460,1480,1490,1460,1450,1410,1430,1430,1430,1450,1440,1430,1440,1420,1430,1450,1490,1480,1470,1460,1520,1480,1540,1550,1610,1630,1610,1690,1670,1730,1560,1550,1760,1690,1820,1860,1820,1800,1740,1660,1610,1630,1630,1690,1680,1710,1750,1820,1840,1830,1840,1850,1840,1830,1830,1930,1930,1940,1950,1930,1920,1870,1860,1820,1820,1770,1780,1870,1930,1960,2000,1930,1970,1910,1980,1930,2070,2120,2000,1880,1850,1820,1800,1750,1760,1710,1690,1660,1630,1650,1650,1590,1560,1540,1510,1500,1540,1570,1550,1620,1620,1630,1700,1700,1670,1580,1550,1580,1610,1600,1580,1620,1740,1710,1650,1620,1610,1570,1560,1610,1630,1640,1640,1640,1660,1650,1660,1660,1640,1600,1590,1530,1530,1550,1520,1500,1500,1460,1490,1410,1410,1370,1350,1320,1300,1310,1270,1230,1230,1200,1190,1170,1150,1130,1110,1120,1090,1100,1080,1070,1060,1120,1130,1080,1070,1090,1050,1060,1130,1090,1100,1110,1120,1210,1200,1190,1150,1110,1070,1090,1120,1160,1120,1140,1160,1130,1110,1090,1090,1150,1140,1150,1100,1100,1090,1080,1080,1090,1070,1120,1110,1070,1030,1060,1030,1040,1030,1050,1020,1030,1000,1010,1060,1090,1080,1090,1060,1020,1020,1000,1010,1000,1030,1090,1070,1090,1090,1080,1110,1100,1080,1020,1040,1010,1040,950,950,930,950,960,970,930,930,940,970,920,930,980,930,930,940,940,950,920,940,930,930,910,920,940,0,1030,1130,1270,1260,1130,1170,1020,1000,990,1000,1030,1230,1270,1250,1110,1270,1210,1210,1260,1260,1310,1210,1230,1240,1250,1210,1280,1200,1200,1110,1100,1130,1130,1190,1180,1280,1310,1220,1260,1340,1350,1280,1310,1280,1170,1150,1130,1120,1180,1250,1250,1270,1220,1260,1220,1230,1300
1730,1730,1760,1760,1760,1760,1760,1790,1790,1800,1810,1790,1740,1700,1610,1560,1540,1520,1470,1510,1400,1380,1420,1490,1610,1690,1670,1710,1720,1750,1760,1790,1790,1780,1780,1760,1800,1750,1750,1790,1820,1820,1950,1930,1890,1830,1820,1810,1810,1900,1810,1820,1820,1830,1800,1810,1820,1780,1800,1770,1760,1830,1750,1760,1740,1770,1800,1770,1900,1810,1770,1760,1760,1780,1730,1650,1680,1730,1750,1750,1760,1800,1810,1820,1820,1810,1830,1830,1840,1840,1860,1910,1930,1880,1870,1830,1780,1720,1680,1600,1550,1510,1510,1530,1610,1690,1710,1610,1630,1700,1740,1790,1780,1840,1880,1920,1980,1910,1910,1900,1850,1840,1780,1750,1800,1860,1890,1890,1880,1810,1750,1750,1740,1780,1820,1710,1680,1560,1600,1650,1640,1610,1610,1620,1590,1530,1550,1540,1550,1520,1480,1510,1460,1460,1430,1430,1470,1450,1500,1530,1580,1610,1490,1390,1360,1360,1340,1420,1380,1360,1360,1360,1340,1320,1340,1390,1360,1390,1380,1370,1380,1370,1360,1420,1500,1410,1410,1460,1570,1460,1410,1400,1400,1420,1390,1430,1440,1440,1430,1430,1420,1410,1410,1430,1460,1420,1480,1460,1420,1410,1480,1430,1460,1430,1450,1480,1490,1500,1550,1570,1560,1600,1570,1570,1580,1580,1680,1710,1780,1780,1730,1830,1790,1720,1600,1570,1710,1740,1710,1720,1730,1780,1830,1850,1890,1860,1880,1870,1850,1810,1840,1920,1940,1950,1970,1880,1880,1890,1790,1790,1750,1960,1930,2020,2030,1930,1880,1850,1870,1870,1910,1980,1920,1870,1900,1900,1780,1800,1790,1780,1710,1680,1690,1660,1720,1670,1640,1580,1510,1480,1500,1570,1570,1600,1550,1510,1630,1620,1630,1560,1510,1510,1570,1590,1590,1590,1620,1650,1740,1640,1660,1740,1610,1550,1590,1610,1620,1630,1630,1640,1660,1660,1650,1640,1590,1570,1530,1540,1490,1510,1480,1470,1450,1430,1400,1380,1360,1340,1310,1310,1290,1250,1220,1220,1210,1200,1180,1160,1140,1130,1130,1140,1130,1090,1080,1060,1090,1140,1120,1040,1050,1070,1070,1090,1090,1100,1120,1200,1190,1200,1130,1110,1080,1090,1110,1120,1130,1130,1140,1160,1160,1130,1120,1130,1130,1110,1130,1110,1130,1110,1100,1100,1120,1160,1150,1150,1060,1070,1050,1030,1050,1040,1060,1030,1050,1010,1010,1070,1080,1080,1080,1020,1010,1020,1020,1010,1020,1030,1120,1120,1140,1120,1100,1020,1120,1050,1050,1020,1000,1020,960,940,940,960,980,960,940,930,930,920,930,940,940,930,970,960,1010,1040,1030,950,950,930,970,910,930,0,0,1110,1240,1250,1140,1010,1010,1020,1060,1120,1240,1230,1230,1260,1230,1220,1260,1250,1300,1270,1290,1240,1240,1190,1260,1280,1360,1340,1270,1270,1120,1140,1120,1250,1250,1270,1200,1210,1230,1310,1320,1280,1310,1310,1170,1150,1140,1140,1130,1230,1240,1280,1310,1240,1250,1270,1300
1730,1730,1750,1760,1780,1780,1760,1770,1800,1810,1800,1760,1720,1660,1600,1600,1510,1450,1510,1510,1430,1420,1520,1570,1690,1690,1710,1740,1730,1740,1760,1790,1860,1850,1800,1740,1770,1740,1760,1790,1790,1830,1890,1930,1850,1840,1830,1830,1840,1910,1830,1820,1820,1840,1830,1820,1790,1800,1820,1840,1770,1760,1790,1790,1790,1770,1740,1790,1830,1850,1780,1770,1810,1790,1730,1660,1670,1730,1770,1790,1810,1820,1830,1810,1830,1870,1920,1860,1860,1900,1960,1870,1890,1890,1910,1860,1840,1770,1720,1670,1590,1520,1500,1550,1600,1680,1670,1710,1730,1740,1720,1760,1820,1870,1960,1970,1990,1990,1990,2000,1920,1880,1830,1760,1800,1910,1920,1910,1870,1800,1800,1780,1780,1870,1750,1690,1650,1590,1670,1670,1650,1650,1670,1630,1550,1590,1560,1570,1560,1530,1530,1530,1490,1480,1460,1450,1430,1390,1390,1510,1530,1530,1450,1400,1370,1350,1360,1360,1370,1350,1370,1370,1380,1350,1340,1360,1380,1390,1380,1370,1370,1390,1370,1400,1410,1390,1480,1560,1560,1490,1430,1410,1410,1410,1410,1410,1410,1420,1420,1410,1430,1420,1420,1390,1460,1440,1460,1470,1420,1410,1410,1430,1470,1470,1430,1510,1480,1480,1520,1540,1540,1560,1530,1550,1540,1510,1600,1660,1720,1780,1780,1800,1770,1730,1650,1550,1700,1720,1720,1720,1780,1930,1790,1870,1940,1860,1920,1870,1870,1830,1840,1910,1970,1950,2000,2000,1940,1850,1800,1770,1780,1980,2060,2040,1950,1890,1940,1810,1850,1800,1840,1900,1860,1910,1820,1810,1760,1780,1770,1760,1720,1710,1680,1690,1700,1670,1630,1620,1540,1500,1480,1570,1610,1610,1580,1520,1620,1540,1570,1530,1480,1530,1550,1580,1550,1590,1620,1660,1640,1640,1710,1620,1610,1550,1590,1560,1610,1560,1620,1630,1660,1670,1630,1630,1590,1570,1580,1540,1490,1460,1430,1450,1430,1420,1410,1390,1370,1350,1340,1300,1280,1260,1250,1230,1240,1190,1180,1180,1150,1140,1170,1140,1150,1080,1070,1080,1150,1070,1080,1090,1070,1070,1070,1070,1100,1110,1140,1140,1220,1230,1120,1140,1100,1100,1100,1130,1110,1110,1110,1140,1180,1130,1140,1120,1100,1100,1130,1180,1140,1130,1110,1120,1160,1170,1190,1210,1080,1050,1050,1070,1050,1040,1030,1030,1030,1020,1020,1050,1050,1090,1070,1010,1010,1020,1050,1020,1050,1040,1200,1150,1070,1170,1140,1070,1100,1110,1010,1010,980,1010,990,930,960,940,980,970,920,940,970,980,950,930,940,910,930,950,1050,1040,1030,1010,960,930,920,910,930,930,0,1050,1190,1230,1020,970,980,1180,1210,1230,1240,1230,1250,1230,1260,1260,1270,1250,1240,1310,1330,1210,1250,1250,1320,1340,1260,1280,1250,1190,1140,1140,1150,1210,1270,1340,1300,1320,1200,1280,1340,1300,1300,1250,1310,1270,1220,1230,1250,1240,1240,1270,1180,1280,1280,1290,1320
1700,1750,1770,1760,1780,1790,1800,1790,1800,1810,1810,1750,1700,1630,1680,1550,1490,1480,1450,1500,1430,1440,1510,1690,1690,1690,1720,1730,1710,1740,1760,1780,1770,1740,1730,1790,1760,1740,1770,1800,1810,1840,1940,1910,1820,1820,1810,1830,1840,1930,1860,1870,1900,1830,1870,1910,1820,1810,1850,1870,1760,1760,1770,1720,1790,1730,1750,1780,1800,1830,1810,1790,1800,1790,1750,1650,1690,1750,1770,1790,1830,1850,1850,1840,1850,1900,1920,1910,1890,1950,1990,1860,1870,1900,1890,1860,1840,1750,1670,1630,1560,1550,1540,1540,1580,1700,1680,1780,1740,1800,1730,1710,1790,1830,1900,2030,1960,1980,1990,1990,1920,1890,1820,1790,1810,1900,1930,1930,1890,1850,1820,1820,1810,1770,1700,1650,1640,1630,1680,1680,1660,1690,1690,1620,1610,1620,1550,1580,1560,1570,1520,1530,1510,1500,1470,1480,1450,1420,1410,1480,1490,1480,1410,1390,1370,1360,1360,1380,1350,1360,1380,1380,1410,1350,1350,1370,1380,1440,1380,1380,1390,1400,1390,1390,1410,1420,1500,1520,1590,1570,1450,1460,1390,1400,1390,1390,1390,1400,1400,1420,1410,1420,1400,1400,1430,1400,1420,1410,1460,1410,1430,1430,1460,1530,1470,1450,1450,1460,1490,1530,1580,1520,1550,1500,1480,1580,1590,1590,1700,1780,1770,1840,1780,1710,1600,1580,1680,1710,1720,1700,1880,1850,1860,1930,1890,1870,1920,1860,1920,1900,1890,1950,1940,1950,1880,1910,1860,1820,1790,1720,1840,1900,1930,1940,1870,1870,1900,1850,1930,1790,1920,1880,1850,1880,1760,1740,1760,1740,1750,1770,1730,1720,1710,1720,1710,1670,1610,1560,1530,1490,1520,1550,1570,1610,1630,1590,1620,1520,1570,1550,1500,1530,1530,1530,1580,1620,1630,1640,1630,1620,1730,1570,1600,1570,1580,1550,1590,1560,1630,1610,1630,1640,1630,1620,1600,1600,1570,1530,1520,1500,1460,1410,1400,1410,1420,1400,1380,1370,1330,1310,1300,1260,1290,1220,1230,1320,1180,1170,1170,1150,1150,1130,1150,1100,1100,1110,1090,1120,1150,1090,1070,1060,1060,1100,1120,1130,1200,1220,1210,1190,1170,1120,1100,1090,1110,1110,1080,1110,1120,1130,1120,1140,1120,1130,1140,1130,1130,1100,1140,1140,1120,1090,1150,1190,1170,1190,1110,1080,1080,1080,1060,1070,1080,1040,1040,1030,1040,1060,1130,1010,1030,1020,1050,1030,1040,1030,1050,1040,1050,1140,1110,1150,1140,1120,1130,1130,1080,1020,1050,1000,990,940,950,950,960,950,1010,970,960,980,920,920,910,950,920,980,910,970,1010,990,910,910,930,970,930,920,940,990,1190,1180,990,1010,1030,1190,1190,1200,1190,1210,1230,1280,1280,1280,1280,1280,1280,1240,1270,1260,1280,1310,1320,1340,1320,1260,1330,1370,1310,1150,1190,1170,1260,1280,1330,1260,1240,1250,1320,1280,1300,1300,1320,1250,1290,1240,1230,1270,1220,1220,1230,1270,1310,1300,1290
1680,1730,1730,1770,1790,1810,1880,1770,1820,1790,1800,1720,1660,1640,1670,1590,1550,1450,1450,1440,1410,1410,1520,1650,1610,1660,1690,1720,1700,1720,1760,1790,1760,1700,1690,1660,1720,1730,1770,1790,1870,1900,1890,1910,1790,1790,1790,1810,1810,1860,1910,1870,1840,1840,1830,1880,1940,1920,1800,1820,1770,1750,1750,1720,1710,1710,1720,1750,1790,1790,1790,1790,1780,1790,1730,1660,1690,1740,1770,1830,1840,1930,1960,1920,1900,1930,1940,1920,1950,1930,1950,1870,1860,1880,1870,1800,1790,1710,1670,1660,1610,1520,1570,1630,1590,1730,1800,1850,1820,1750,1740,1690,1720,1770,1850,1880,1920,1960,2040,2010,1970,1920,1900,1810,1880,1910,2020,1960,1900,1870,1840,1830,1790,1770,1770,1710,1670,1670,1710,1700,1700,1700,1690,1630,1660,1620,1590,1640,1580,1530,1550,1510,1540,1510,1490,1480,1440,1470,1420,1470,1470,1390,1430,1370,1400,1360,1370,1350,1350,1360,1360,1390,1370,1340,1360,1400,1400,1390,1390,1440,1450,1480,1440,1430,1470,1470,1530,1580,1680,1580,1490,1440,1410,1390,1400,1390,1390,1390,1400,1400,1410,1400,1420,1440,1420,1400,1410,1390,1430,1430,1410,1420,1460,1460,1470,1440,1420,1460,1490,1490,1530,1520,1480,1450,1480,1550,1530,1580,1730,1700,1730,1770,1780,1700,1630,1530,1670,1680,1770,1800,1850,1840,1880,1940,1950,1950,1900,1820,1840,1880,1910,1880,1890,1960,1900,1880,1840,1790,1740,1700,1780,1830,1700,1830,1780,1760,1720,1830,1830,1870,1810,1830,1870,1770,1720,1740,1710,1690,1700,1750,1760,1730,1730,1730,1720,1680,1630,1570,1500,1550,1570,1640,1530,1490,1500,1580,1560,1540,1490,1530,1490,1540,1480,1530,1600,1610,1610,1610,1640,1610,1580,1600,1560,1500,1530,1550,1550,1550,1590,1610,1620,1650,1640,1630,1630,1580,1540,1530,1520,1500,1480,1460,1400,1390,1390,1430,1390,1360,1360,1310,1290,1270,1240,1240,1220,1200,1190,1160,1150,1170,1140,1110,1120,1080,1080,1030,1110,1070,1080,1070,1070,1050,1070,1100,1160,1200,1210,1210,1170,1180,1150,1110,1140,1110,1090,1120,1100,1130,1150,1120,1110,1110,1130,1130,1130,1100,1120,1170,1110,1120,1130,1100,1120,1150,1120,1180,1190,1110,1120,1080,1080,1110,1070,1060,1050,1030,1010,1000,1000,990,1030,1010,1030,1030,1080,1030,1020,1090,1140,1060,1080,1170,1180,1130,1140,1110,1010,1080,1130,980,970,990,970,950,980,990,940,920,940,940,970,1010,1010,990,930,980,940,960,1030,1020,940,920,930,920,900,920,930,970,1080,1050,1010,1010,1040,1150,1200,1210,1220,1230,1240,1260,1270,1290,1270,1270,1300,1270,1310,1190,1290,1310,1210,1130,1220,1310,1230,1290,1280,1230,1240,1210,1280,1290,1320,1270,1250,1270,1310,1350,1370,1390,1260,1260,1260,1290,1310,1270,1280,1220,1230,1250,1320,1320,1320
1680,1690,1740,1780,1800,1800,1810,1810,1810,1790,1730,1700,1670,1690,1680,1570,1550,1480,1490,1480,1430,1430,1480,1520,1550,1570,1660,1710,1670,1680,1760,1760,1740,1740,1630,1690,1710,1740,1780,1810,1820,1790,1810,1820,1790,1750,1770,1760,1810,1860,1890,1830,1840,1840,1840,1920,1880,1910,1890,1860,1780,1790,1770,1740,1700,1790,1740,1730,1790,1790,1760,1780,1780,1770,1750,1660,1670,1710,1800,1810,1860,1930,1940,1930,1900,1900,1900,1930,1940,1960,1950,1870,1830,1860,1840,1780,1760,1680,1590,1570,1510,1600,1640,1690,1580,1730,1810,1930,1920,1780,1690,1690,1720,1770,1820,1830,1860,1890,1980,1960,1950,1920,1920,1860,1890,1930,2020,2050,1920,1890,1930,1930,1800,1710,1760,1740,1640,1700,1740,1720,1730,1730,1690,1650,1670,1640,1650,1640,1590,1560,1550,1560,1560,1540,1520,1470,1480,1480,1440,1470,1400,1390,1440,1360,1370,1380,1370,1350,1370,1360,1370,1380,1360,1360,1370,1410,1440,1430,1420,1440,1490,1450,1520,1440,1450,1520,1610,1650,1640,1590,1580,1490,1440,1420,1390,1380,1390,1380,1390,1390,1410,1390,1390,1430,1400,1410,1400,1370,1390,1420,1410,1400,1400,1430,1440,1440,1420,1430,1470,1450,1460,1500,1530,1550,1480,1500,1590,1580,1600,1660,1670,1710,1700,1720,1660,1660,1540,1700,1710,1760,1860,1890,1880,1930,1880,1880,1900,1780,1770,1810,1800,1790,1830,1920,1850,1840,1910,1760,1700,1700,1740,1760,1660,1830,1790,1750,1690,1750,1760,1840,1870,1780,1890,1790,1670,1670,1690,1670,1710,1740,1760,1750,1740,1730,1700,1650,1620,1550,1490,1550,1590,1640,1560,1530,1470,1480,1500,1530,1500,1470,1460,1470,1520,1540,1570,1670,1570,1610,1600,1600,1570,1530,1530,1480,1500,1530,1580,1610,1590,1610,1610,1650,1690,1660,1610,1580,1550,1540,1530,1510,1510,1480,1440,1410,1380,1350,1360,1340,1330,1330,1290,1250,1250,1220,1200,1200,1180,1170,1150,1140,1150,1100,1120,1080,1070,1070,1100,1060,1080,1060,1060,1090,1160,1190,1200,1210,1180,1220,1230,1270,1130,1120,1120,1140,1130,1120,1130,1130,1140,1130,1130,1120,1180,1130,1160,1120,1110,1110,1130,1150,1210,1160,1170,1190,1150,1130,1120,1140,1160,1140,1160,1110,1070,1070,1120,1020,1030,1010,1030,1020,1020,1010,1020,1040,1060,1110,1040,1040,1060,1040,1070,1170,1180,1140,1130,1120,1090,1120,1120,1010,960,950,950,920,990,950,920,930,920,920,920,940,940,940,930,910,920,960,960,1040,970,940,1000,970,980,1000,920,910,1090,1050,1000,970,1030,1160,1180,1190,1170,1230,1270,1270,1280,1260,1250,1240,1250,1310,1330,1190,1290,1240,1140,1140,1150,1320,1260,1310,1300,1240,1250,1260,1290,1260,1270,1220,1250,1270,1280,1310,1370,1220,1220,1250,1220,1320,1350,1370,1330,1210,1190,1280,1300,1300,1310
1720,1740,1750,1790,1810,1790,1800,1900,1780,1750,1740,1720,1680,1660,1640,1560,1500,1500,1510,1470,1420,1400,1440,1490,1530,1570,1640,1690,1720,1710,1750,1750,1710,1770,1620,1680,1740,1770,1790,1820,1800,1790,1800,1790,1790,1730,1730,1760,1770,1840,1870,1800,1820,1820,1830,1910,1900,1870,1830,1820,1810,1780,1750,1750,1750,1820,1750,1730,1750,1790,1750,1750,1770,1770,1750,1640,1640,1680,1770,1810,1840,1890,1920,1890,1830,1880,1860,1940,1970,1940,1960,1940,1820,1830,1830,1780,1700,1630,1580,1620,1520,1580,1680,1710,1630,1800,1900,1900,1920,1820,1730,1770,1720,1750,1760,1850,1860,1900,1910,1920,1950,1940,1950,1900,1880,1950,1960,2020,1960,1870,1850,1840,1890,1760,1790,1770,1670,1720,1770,1750,1760,1750,1720,1670,1710,1650,1680,1640,1590,1600,1590,1590,1570,1540,1520,1500,1500,1470,1430,1420,1430,1430,1410,1380,1370,1400,1380,1370,1420,1370,1380,1380,1360,1360,1380,1430,1480,1460,1410,1400,1490,1580,1510,1490,1460,1470,1540,1580,1680,1650,1590,1480,1470,1510,1470,1410,1400,1400,1380,1420,1400,1380,1390,1390,1410,1410,1360,1390,1410,1410,1420,1370,1370,1390,1390,1420,1440,1440,1390,1430,1440,1530,1510,1480,1490,1590,1590,1530,1540,1630,1690,1700,1720,1720,1840,1760,1530,1630,1680,1720,1780,1890,1900,1890,1900,1790,1750,1750,1770,1690,1750,1710,1870,1920,1830,1830,1840,1730,1680,1690,1730,1730,1630,1780,1860,1700,1670,1680,1760,1830,1740,1730,1710,1700,1630,1620,1670,1650,1650,1700,1740,1820,1760,1740,1650,1600,1570,1560,1470,1530,1590,1570,1560,1530,1510,1470,1510,1520,1490,1440,1490,1510,1540,1540,1540,1550,1580,1620,1600,1540,1550,1490,1490,1490,1520,1570,1590,1650,1610,1640,1630,1640,1650,1650,1600,1570,1560,1540,1560,1530,1500,1470,1450,1420,1460,1390,1350,1330,1310,1290,1280,1280,1240,1210,1210,1190,1180,1150,1150,1130,1120,1120,1120,1080,1060,1080,1090,1080,1070,1040,1080,1090,1080,1110,1120,1240,1260,1250,1260,1240,1150,1140,1140,1150,1120,1120,1120,1150,1140,1160,1150,1130,1120,1180,1170,1130,1120,1130,1140,1170,1180,1240,1130,1170,1100,1210,1110,1110,1140,1170,1170,1090,1100,1070,1050,1020,1040,1020,1010,1030,1050,1030,1030,1030,1030,1060,1050,1090,1120,1060,1100,1070,1140,1140,1140,1190,1090,1170,990,990,990,990,970,910,940,930,910,930,930,940,940,930,920,920,920,910,950,930,920,950,910,930,920,920,930,870,910,0,1030,1050,980,960,980,1000,1070,1130,1180,1210,1240,1260,1240,1270,1250,1270,1240,1270,1220,1280,1260,1270,1150,1150,1160,1300,1310,1290,1280,1300,1280,1280,1300,1270,1260,1210,1250,1330,1360,1360,1380,1260,1250,1190,1230,1300,1260,1290,1260,1240,1200,1240,1230,1250,1330
1760,1750,1790,1800,1800,1780,1770,1870,1780,1760,1700,1690,1600,1650,1580,1490,1480,1470,1490,1480,1420,1440,1430,1450,1530,1590,1610,1680,1670,1760,1750,1740,1740,1750,1610,1640,1730,1780,1800,1790,1740,1780,1810,1770,1780,1750,1680,1740,1740,1790,1870,1860,1810,1800,1800,1900,1850,1830,1810,1890,1780,1750,1790,1800,1810,1760,1780,1700,1710,1730,1710,1750,1790,1810,1760,1660,1630,1700,1750,1770,1810,1880,1850,1870,1820,1880,1910,1970,1980,1960,1950,1940,1840,1780,1760,1700,1640,1600,1530,1540,1570,1630,1690,1730,1680,1850,1820,1920,2000,1870,1750,1800,1820,1730,1770,1840,1860,1870,1890,1900,1920,1930,1950,1910,1900,1950,1970,2000,1970,1900,1840,1790,1760,1800,1800,1760,1680,1740,1790,1900,1840,1840,1710,1700,1720,1700,1670,1650,1630,1640,1610,1610,1580,1560,1520,1560,1490,1430,1420,1420,1430,1420,1420,1410,1430,1380,1370,1380,1400,1380,1360,1350,1350,1370,1370,1420,1460,1460,1410,1440,1480,1530,1530,1550,1480,1480,1600,1720,1670,1680,1540,1650,1600,1580,1510,1470,1370,1380,1390,1410,1410,1390,1400,1390,1380,1410,1400,1390,1420,1420,1390,1380,1390,1400,1410,1400,1390,1420,1390,1400,1440,1470,1440,1440,1480,1510,1490,1500,1530,1620,1590,1720,1780,1760,1900,1890,1730,1640,1670,1660,1740,1810,1870,1830,1830,1800,1730,1720,1680,1680,1710,1730,1870,1770,1830,1900,1900,1720,1660,1640,1710,1790,1600,1710,1840,1750,1650,1630,1720,1790,1670,1720,1650,1640,1590,1610,1630,1650,1680,1720,1760,1770,1730,1740,1720,1580,1530,1530,1460,1510,1490,1460,1550,1540,1500,1460,1530,1500,1460,1450,1580,1540,1520,1600,1590,1520,1580,1580,1590,1510,1490,1500,1490,1500,1550,1570,1610,1650,1640,1630,1630,1640,1670,1650,1590,1580,1550,1550,1570,1530,1520,1510,1450,1430,1430,1390,1370,1340,1280,1270,1240,1230,1230,1210,1190,1150,1190,1140,1150,1170,1170,1110,1150,1070,1070,1060,1070,1090,1050,1080,1080,1090,1080,1100,1110,1210,1230,1220,1230,1240,1180,1150,1160,1180,1140,1120,1120,1150,1140,1150,1150,1160,1160,1150,1180,1150,1170,1150,1140,1130,1200,1120,1080,1090,1090,1140,1090,1140,1190,1140,1180,1150,1130,1080,1040,1020,1040,1030,1030,1040,1060,1040,1030,1030,1030,1050,1110,1130,1070,1090,1090,1140,1060,1190,1280,1130,1130,1160,960,1060,1050,1060,980,930,930,970,910,940,930,920,940,940,950,940,920,910,940,930,930,960,920,920,950,940,920,950,940,0,1030,1050,1020,950,970,1010,1000,1020,1200,1220,1240,1200,1210,1250,1260,1270,1290,1290,1290,1270,1250,1290,1150,1130,1140,1280,1190,1260,1300,1290,1310,1320,1310,1210,1330,1270,1230,1340,1330,1360,1360,1350,1240,1220,1220,1330,1260,1300,1280,1180,1200,1220,1230,1250,1300
1780,1790,1790,1800,1790,1790,1790,1870,1880,1840,1680,1610,1570,1570,1580,1480,1450,1450,1440,1410,1430,1460,1500,1480,1510,1550,1570,1670,1710,1750,1680,1780,1780,1710,1570,1650,1700,1750,1790,1760,1730,1770,1760,1730,1750,1720,1660,1700,1730,1740,1820,1860,1870,1790,1820,1830,1850,1800,1820,1820,1770,1770,1790,1800,1780,1760,1740,1700,1750,1670,1680,1740,1760,1810,1760,1670,1650,1680,1710,1760,1830,1830,1840,1780,1790,1780,1830,1930,1920,1910,1940,1950,1840,1790,1670,1680,1600,1570,1550,1520,1570,1630,1710,1720,1730,1790,1850,1890,1970,1890,1790,1860,1870,1800,1750,1840,1860,1850,1890,1880,1900,1920,1930,1920,1930,1960,1970,1940,1890,1890,1830,1810,1790,1810,1820,1740,1710,1770,1840,1860,1860,1860,1740,1730,1740,1700,1690,1670,1660,1650,1620,1630,1610,1570,1570,1500,1470,1410,1470,1420,1470,1490,1470,1460,1460,1410,1390,1370,1380,1380,1380,1340,1350,1360,1360,1480,1440,1440,1440,1490,1480,1580,1600,1590,1570,1610,1620,1730,1690,1580,1580,1600,1630,1540,1500,1480,1420,1400,1400,1400,1400,1400,1420,1400,1390,1390,1380,1390,1440,1410,1380,1370,1390,1420,1400,1380,1390,1380,1410,1410,1420,1430,1440,1420,1440,1450,1460,1480,1540,1620,1610,1710,1850,1900,1850,1770,1730,1620,1740,1860,1840,1890,1860,1860,1870,1860,1810,1830,1820,1680,1620,1630,1720,1660,1790,1790,1820,1660,1620,1660,1750,1710,1620,1610,1620,1670,1610,1540,1590,1630,1620,1600,1610,1630,1600,1620,1650,1760,1750,1750,1860,1720,1770,1630,1750,1670,1580,1590,1590,1460,1460,1470,1500,1520,1520,1460,1530,1570,1540,1550,1520,1530,1540,1550,1510,1640,1560,1530,1560,1490,1520,1490,1570,1550,1550,1590,1640,1660,1680,1690,1650,1650,1660,1640,1610,1610,1560,1550,1550,1520,1490,1480,1450,1430,1410,1360,1350,1320,1270,1240,1250,1260,1220,1210,1200,1290,1190,1180,1190,1190,1170,1160,1120,1070,1090,1070,1090,1080,1070,1050,1090,1130,1110,1120,1120,1190,1250,1250,1280,1200,1160,1160,1160,1200,1170,1120,1110,1140,1130,1150,1150,1170,1160,1220,1230,1170,1160,1180,1170,1140,1100,1090,1100,1100,1110,1130,1130,1120,1210,1140,1110,1140,1130,1090,1030,1000,1040,1050,1030,1030,1070,1040,1040,1070,1030,1070,1150,1140,1110,1050,1060,1050,1060,1180,1170,1120,1190,1130,980,1040,1120,1060,990,960,960,920,940,940,940,970,930,940,930,930,910,960,940,950,930,920,910,930,930,920,910,930,940,0,1000,1040,1010,970,960,990,1020,1000,1200,1230,1240,1220,1250,1280,1250,1260,1270,1250,1290,1270,1260,1250,1150,1160,1140,1310,1330,1280,1280,1270,1300,1280,1290,1310,1290,1340,1340,1320,1420,1360,1300,1360,1330,1270,1240,1320,1270,1210,1210,1190,1250,1230,1230,1260,1250
1770,1760,1790,1770,1790,1770,1770,1810,1740,1710,1650,1630,1690,1670,1580,1510,1460,1510,1440,1400,1400,1450,1470,1530,1480,1500,1560,1720,1710,1720,1720,1810,1810,1770,1600,1590,1620,1720,1740,1730,1710,1720,1720,1710,1700,1680,1670,1720,1760,1770,1770,1840,1830,1770,1800,1800,1810,1810,1820,1820,1770,1800,1800,1790,1780,1730,1750,1740,1740,1760,1670,1710,1780,1820,1750,1670,1650,1660,1700,1750,1780,1810,1820,1760,1750,1780,1820,1900,1900,1910,1920,1920,1820,1760,1700,1630,1610,1590,1610,1580,1680,1640,1650,1750,1760,1700,1760,1910,1960,1980,1860,1950,1910,1840,1780,1840,1840,1850,1870,1910,1900,1940,1940,1950,1940,1970,2100,1960,1910,1890,1850,1810,1780,1830,1790,1740,1760,1800,1850,1860,1860,1850,1790,1740,1750,1720,1690,1720,1690,1670,1660,1670,1630,1590,1540,1520,1450,1420,1450,1460,1500,1510,1520,1480,1490,1450,1400,1390,1370,1390,1390,1370,1370,1360,1370,1400,1480,1500,1430,1490,1480,1500,1690,1680,1580,1610,1740,1680,1590,1520,1540,1540,1580,1550,1520,1510,1480,1390,1380,1420,1400,1370,1380,1410,1380,1390,1400,1380,1400,1410,1370,1390,1390,1400,1380,1400,1400,1400,1410,1420,1440,1400,1480,1430,1450,1490,1460,1480,1540,1570,1740,1690,1730,1710,1790,1690,1610,1570,1780,1830,1900,1900,1870,1870,1880,1900,1920,1840,1800,1720,1710,1560,1700,1630,1680,1680,1660,1610,1600,1630,1670,1680,1600,1600,1580,1650,1600,1590,1590,1570,1590,1570,1610,1580,1590,1570,1600,1640,1720,1760,1830,1680,1640,1650,1720,1710,1680,1690,1660,1530,1450,1420,1470,1480,1470,1430,1440,1490,1450,1540,1480,1550,1600,1610,1550,1510,1540,1500,1470,1470,1460,1520,1590,1560,1590,1580,1650,1670,1690,1680,1650,1640,1670,1660,1630,1630,1560,1520,1510,1630,1600,1490,1480,1440,1400,1390,1360,1330,1310,1270,1270,1240,1250,1200,1190,1190,1200,1190,1240,1180,1180,1160,1100,1110,1070,1070,1090,1080,1090,1060,1090,1170,1130,1140,1140,1180,1280,1290,1300,1200,1200,1160,1180,1170,1150,1130,1140,1130,1150,1150,1160,1160,1210,1190,1260,1210,1200,1170,1160,1120,1110,1140,1110,1130,1140,1130,1120,1180,1220,1130,1150,1170,1120,1140,1040,1040,1050,1030,1060,1060,1060,1060,1040,1040,1070,1090,1060,1130,1120,1120,1090,1150,1150,1140,1150,1170,1170,1000,980,1050,1060,1050,1030,1090,970,910,950,940,910,930,930,970,940,940,920,930,910,910,930,940,970,940,940,900,900,920,930,910,0,1020,990,950,950,990,1000,1060,1160,1220,1240,1260,1230,1240,1280,1280,1260,1260,1270,1280,1250,1300,1140,1150,1190,1310,1310,1290,1280,1250,1110,1260,1250,1150,1310,1270,1260,1330,1380,1250,1240,1290,1360,1270,1310,1260,1280,1240,1190,1240,1260,1200,1250,1250,1250
1750,1750,1750,1770,1770,1760,1770,1750,1740,1670,1640,1690,1670,1630,1650,1620,1490,1480,1450,1420,1420,1450,1460,1500,1470,1550,1550,1590,1590,1670,1740,1690,1740,1650,1550,1530,1570,1630,1680,1690,1710,1680,1660,1640,1620,1610,1650,1710,1740,1760,1780,1750,1750,1760,1780,1770,1780,1800,1830,1820,1800,1820,1810,1790,1790,1760,1770,1800,1760,1720,1660,1720,1760,1820,1760,1640,1650,1640,1720,1720,1750,1810,1790,1730,1740,1820,1820,1850,1870,1930,1920,1860,1840,1720,1700,1670,1640,1550,1540,1570,1660,1720,1640,1740,1770,1760,1770,1820,1940,2000,1920,1990,1980,1910,1830,1810,1820,1860,1900,1890,1930,1940,1950,1950,1950,1980,1980,1950,1950,1890,1820,1840,1830,1800,1740,1750,1800,1870,1820,1810,1850,1840,1740,1740,1750,1730,1720,1730,1700,1690,1700,1670,1650,1600,1560,1500,1470,1440,1500,1530,1560,1510,1530,1500,1500,1450,1420,1390,1380,1390,1370,1390,1360,1380,1380,1410,1490,1490,1470,1440,1460,1490,1570,1700,1690,1700,1750,1680,1630,1580,1550,1540,1660,1580,1510,1500,1440,1500,1430,1420,1390,1400,1380,1380,1400,1390,1380,1400,1390,1450,1450,1370,1420,1410,1390,1470,1430,1380,1410,1410,1430,1410,1410,1440,1420,1470,1460,1500,1470,1520,1640,1580,1610,1660,1610,1560,1420,1640,1730,1830,1860,1840,1870,1880,1900,1930,1910,1870,1760,1780,1760,1730,1580,1590,1620,1660,1610,1600,1600,1660,1710,1830,1580,1590,1590,1650,1610,1630,1540,1600,1590,1560,1600,1600,1550,1540,1570,1590,1590,1660,1730,1720,1730,1680,1690,1690,1680,1710,1550,1500,1480,1450,1400,1410,1450,1430,1410,1450,1420,1480,1480,1520,1560,1590,1580,1480,1540,1500,1460,1450,1480,1570,1600,1560,1590,1620,1640,1680,1700,1680,1660,1650,1670,1670,1620,1600,1570,1520,1470,1490,1520,1510,1540,1460,1420,1400,1360,1340,1320,1280,1260,1240,1230,1290,1210,1210,1200,1190,1200,1180,1160,1090,1120,1080,1090,1070,1090,1060,1070,1080,1110,1120,1150,1160,1150,1180,1260,1260,1210,1200,1180,1180,1200,1180,1130,1130,1150,1120,1140,1160,1180,1190,1190,1190,1210,1250,1190,1170,1180,1130,1130,1130,1150,1110,1130,1130,1140,1150,1160,1150,1170,1160,1100,1060,1050,1070,1080,1060,1050,1040,1060,1040,1040,1060,1030,1050,1090,1090,1120,1110,1150,1100,1150,1060,1130,1180,1080,990,1000,1130,1120,1100,1070,1060,1040,1000,950,940,940,940,930,950,940,950,940,930,950,930,930,940,950,970,930,880,880,950,910,920,0,970,940,970,990,980,1000,1110,1160,1200,1170,1210,1190,1240,1250,1290,1080,1160,1280,1260,1300,1320,1150,1170,1220,1360,1330,1280,1320,1190,1080,1090,1110,1150,1310,1300,1280,1300,1340,1260,1260,1230,1300,1310,1270,1230,1200,1230,1240,1220,1230,1230,1260,1250,1260
1750,1720,1710,1720,1760,1730,1770,1760,1730,1700,1690,1690,1720,1640,1670,1650,1540,1580,1520,1430,1420,1420,1460,1480,1470,1550,1540,1600,1540,1620,1620,1670,1620,1610,1540,1520,1510,1580,1630,1700,1650,1650,1620,1570,1590,1610,1620,1660,1710,1750,1760,1720,1750,1790,1780,1770,1790,1810,1830,1810,1840,1850,1850,1890,1780,1760,1790,1790,1780,1730,1640,1740,1770,1830,1770,1660,1630,1630,1670,1730,1760,1820,1830,1810,1770,1800,1790,1840,1800,1840,1860,1840,1810,1690,1670,1600,1560,1540,1530,1610,1680,1750,1770,1730,1800,1790,1800,1820,1870,1920,1920,1950,1890,1830,1890,1870,1940,1900,1930,1950,1940,1970,1960,1980,1950,1980,1940,1940,1920,1850,1860,1900,1830,1790,1760,1770,1860,1910,1880,1800,1860,1880,1760,1770,1740,1810,1730,1720,1700,1690,1660,1650,1640,1600,1580,1480,1450,1500,1540,1560,1580,1570,1530,1530,1460,1390,1400,1390,1390,1380,1390,1370,1390,1410,1410,1440,1540,1460,1470,1480,1470,1490,1670,1730,1740,1670,1690,1650,1620,1580,1560,1590,1640,1610,1550,1540,1530,1590,1510,1540,1520,1480,1530,1530,1500,1380,1380,1370,1390,1370,1400,1380,1380,1380,1390,1390,1400,1380,1400,1390,1400,1400,1400,1440,1450,1460,1480,1470,1460,1510,1480,1530,1570,1640,1610,1420,0,1670,1720,1810,1850,1880,1890,1860,1910,1930,1890,1830,1820,1830,1780,1800,1580,1560,1700,1720,1610,1600,1610,1680,1730,1800,1560,1550,1630,1650,1570,1560,1530,1540,1540,1560,1600,1570,1500,1530,1550,1540,1590,1730,1650,1640,1610,1620,1660,1580,1640,1640,1610,1510,1440,1460,1430,1370,1440,1440,1410,1380,1400,1460,1510,1440,1580,1570,1530,1480,1500,1470,1440,1470,1520,1600,1630,1600,1610,1610,1640,1680,1710,1700,1670,1670,1690,1670,1610,1590,1550,1510,1480,1460,1500,1480,1560,1550,1420,1400,1380,1340,1290,1280,1270,1310,1280,1270,1220,1170,1170,1170,1210,1180,1140,1140,1170,1080,1070,1060,1080,1070,1090,1090,1160,1160,1160,1180,1200,1170,1220,1280,1220,1230,1190,1230,1190,1200,1150,1120,1160,1130,1140,1180,1160,1180,1190,1210,1190,1290,1190,1160,1130,1130,1160,1130,1130,1120,1150,1150,1200,1160,1180,1190,1120,1160,1110,1070,1040,1100,1100,1090,1090,1050,1060,1070,1050,1040,1040,1040,1100,1110,1140,1120,1100,1030,1130,1150,1100,1110,1010,1000,1010,1020,970,1030,1090,1030,1020,1080,990,920,950,950,950,910,920,940,930,960,960,930,940,940,940,940,940,920,930,940,970,910,0,950,990,990,1000,1000,1000,1050,1120,1210,1200,1200,1190,1180,1180,1120,1270,1260,1260,1250,1220,1300,1260,1250,1260,1290,1290,1260,1240,1100,1080,1190,1090,1110,1190,1170,1300,1290,1220,1220,1270,1230,1220,1240,1270,1170,1170,1230,1220,1240,1230,1260,1270,1220,1250
1740,1670,1690,1720,1730,1740,1760,1760,1700,1680,1710,1750,1700,1690,1680,1660,1580,1640,1590,1430,1420,1410,1450,1440,1530,1480,1540,1550,1570,1640,1610,1580,1580,1580,1580,1490,1540,1580,1590,1600,1620,1670,1710,1570,1620,1620,1640,1690,1720,1730,1760,1710,1770,1750,1760,1760,1780,1800,1820,1860,1880,1870,1920,1910,1860,1840,1790,1790,1760,1710,1640,1720,1780,1810,1760,1690,1630,1620,1700,1720,1780,1830,1850,1820,1800,1780,1740,1790,1790,1730,1770,1730,1770,1610,1640,1530,1610,1580,1620,1720,1780,1760,1760,1720,1800,1830,1810,1850,1890,1920,1930,1960,1930,1860,1940,1900,1990,1980,1940,1950,1960,1980,2000,1980,1970,1980,1940,1960,1920,1870,1900,1890,1820,1780,1840,1810,1810,1850,1920,1850,1890,1860,1820,1770,1770,1760,1750,1690,1650,1620,1600,1640,1630,1660,1570,1450,1510,1560,1580,1550,1560,1530,1480,1520,1460,1400,1480,1420,1410,1410,1390,1470,1390,1380,1410,1540,1570,1570,1510,1490,1490,1550,1560,1650,1670,1730,1760,1730,1610,1580,1540,1580,1720,1680,1540,1550,1500,1460,1460,1460,1420,1460,1460,1520,1460,1430,1390,1380,1360,1400,1380,1370,1380,1390,1420,1430,1380,1380,1410,1430,1440,1400,1400,1410,1470,1430,1430,1470,1470,1480,1470,1500,1520,1540,1520,0,1520,1660,1700,1760,1880,1890,1870,1770,1840,1900,1860,1760,1780,1750,1880,1770,1700,1550,1530,1580,1570,1580,1650,1690,1690,1660,1580,1520,1650,1570,1520,1490,1470,1500,1510,1570,1560,1560,1510,1520,1510,1570,1620,1640,1660,1580,1560,1560,1610,1670,1630,1600,1590,1490,1520,1470,1460,1390,1370,1390,1420,1390,1460,1460,1490,1440,1490,1540,1400,1460,1500,1490,1400,1480,1520,1600,1640,1620,1610,1610,1650,1690,1690,1690,1690,1700,1720,1670,1640,1590,1570,1540,1510,1430,1490,1450,1440,1440,1390,1370,1360,1340,1320,1280,1270,1260,1280,1240,1220,1210,1170,1130,1180,1200,1150,1130,1190,1070,1110,1130,1080,1080,1090,1070,1130,1190,1200,1190,1210,1230,1260,1210,1230,1240,1200,1220,1190,1200,1160,1160,1170,1150,1150,1170,1180,1240,1250,1210,1210,1190,1180,1170,1160,1160,1140,1100,1130,1120,1120,1150,1160,1120,1130,1110,1140,1090,1060,1070,1070,1100,1090,1090,1070,1070,1080,1090,1090,1120,1030,1030,1100,1090,1120,1060,1030,1060,1050,1110,1110,1000,1060,1040,1080,1030,1130,1110,1100,1060,1000,1000,990,950,920,930,940,950,940,950,940,940,920,930,960,930,930,940,930,920,920,940,910,930,0,930,1000,980,940,980,1000,1030,1030,1180,1190,1170,1170,1160,1180,1210,1210,1310,1330,1320,1300,1340,1330,1310,1300,1270,1290,1110,1110,1060,1090,1070,1060,1060,1100,1120,1250,1320,1370,1290,1250,1220,1230,1270,1230,1180,1150,1190,1190,1190,1220,1270,1240,1260,1260
1700,1680,1680,1740,1770,1730,1780,1750,1730,1710,1760,1740,1730,1710,1680,1610,1660,1650,1550,1460,1440,1470,1410,1440,1430,1470,1480,1480,1510,1620,1550,1480,1490,1550,1530,1500,1520,1550,1570,1570,1580,1650,1590,1600,1590,1610,1670,1650,1710,1720,1750,1690,1740,1730,1720,1760,1760,1780,1830,1870,1890,1860,1870,1900,1890,1910,1790,1780,1750,1740,1660,1710,1740,1770,1760,1730,1650,1620,1660,1700,1730,1760,1770,1800,1840,1800,1650,1690,1770,1710,1730,1670,1660,1560,1620,1590,1600,1700,1650,1740,1840,1910,1800,1740,1800,1870,1860,1870,1910,1940,1980,2040,1930,1910,1900,1930,2040,2010,2030,1960,1980,2000,2000,1980,1980,1960,1960,1960,1960,1910,1910,1890,1840,1810,1830,1820,1800,1810,1880,1780,1780,1720,1690,1750,1780,1710,1760,1670,1600,1560,1570,1560,1610,1560,1520,1480,1500,1560,1600,1530,1500,1510,1450,1470,1420,1400,1460,1450,1450,1410,1400,1480,1470,1430,1420,1430,1510,1540,1510,1550,1530,1560,1600,1580,1620,1660,1740,1630,1580,1660,1540,1530,1610,1610,1520,1520,1490,1480,1500,1420,1470,1450,1420,1380,1400,1420,1370,1380,1390,1370,1360,1370,1370,1370,1420,1400,1400,1420,1440,1420,1460,1420,1410,1420,1420,1440,1470,1460,1470,1440,1470,1520,1470,1490,0,0,1420,1630,1680,1720,1790,1790,1750,1760,1770,1800,1800,1710,1670,1650,1760,1710,1580,1560,1510,1570,1530,1590,1640,1690,1640,1600,1560,1560,1600,1490,1470,1470,1450,1470,1520,1570,1540,1520,1490,1490,1510,1550,1600,1660,1720,1560,1540,1520,1670,1660,1650,1580,1580,1480,1540,1490,1450,1390,1350,1370,1400,1420,1460,1460,1480,1380,1470,1530,1400,1460,1470,1440,1420,1510,1530,1590,1640,1640,1630,1620,1650,1680,1700,1690,1710,1720,1720,1710,1620,1580,1540,1520,1490,1490,1480,1530,1430,1430,1400,1370,1370,1340,1330,1290,1280,1260,1250,1240,1240,1230,1200,1160,1160,1190,1210,1160,1060,1110,1160,1150,1090,1080,1100,1110,1140,1200,1170,1210,1240,1230,1200,1200,1260,1230,1220,1220,1190,1180,1170,1190,1180,1170,1160,1170,1190,1220,1240,1250,1220,1190,1180,1160,1170,1160,1160,1160,1160,1160,1170,1200,1210,1180,1160,1120,1100,1090,1060,1060,1080,1120,1120,1090,1080,1090,1130,1250,1190,1170,1040,1020,1050,1080,1010,1030,1020,1030,1010,1020,1010,1020,1140,1100,1080,1100,1280,1120,1100,1110,1040,980,940,980,930,920,950,960,930,940,930,950,930,920,950,930,930,960,930,920,920,940,910,940,0,970,990,990,970,960,990,1010,1040,1100,1100,1150,1130,1190,1210,1200,1230,1190,1310,1310,1300,1300,1330,1330,1300,1260,1180,1120,1050,1070,1080,1110,1090,1090,1110,1110,1150,1320,1330,1350,1240,1220,1210,1230,1170,1210,1240,1220,1210,1220,1230,1240,1270,1310,1280
1670,1640,1690,1710,1720,1750,1780,1770,1740,1740,1740,1770,1730,1710,1670,1650,1690,1660,1550,1490,1470,1460,1490,1420,1480,1440,1490,1470,1480,1460,1480,1510,1510,1490,1470,1480,1490,1520,1540,1540,1570,1550,1550,1600,1650,1640,1700,1630,1710,1760,1740,1680,1730,1710,1750,1770,1760,1770,1770,1840,1910,1890,1890,1900,1810,1880,1890,1780,1780,1750,1680,1660,1700,1740,1650,1630,1630,1590,1600,1660,1640,1670,1670,1740,1820,1750,1670,1620,1660,1720,1620,1590,1540,1590,1620,1650,1650,1700,1770,1740,1770,1830,1830,1800,1780,1840,1880,1870,1960,1940,1980,1980,1960,1950,1920,1940,1960,2010,2020,1990,2010,2030,2000,1970,2010,2000,1960,1940,1960,1940,1890,1880,1840,1860,1890,1870,1840,1840,1800,1760,1740,1740,1710,1660,1750,1750,1670,1600,1650,1600,1570,1550,1550,1510,1500,1520,1560,1570,1540,1550,1480,1550,1450,1420,1410,1440,1450,1470,1460,1400,1420,1470,1490,1410,1430,1440,1460,1480,1500,1540,1570,1580,1580,1590,1610,1630,1660,1600,1540,1560,1470,1450,1440,1540,1520,1450,1520,1470,1400,1470,1510,1400,1390,1380,1390,1480,1360,1380,1380,1380,1370,1370,1350,1370,1380,1390,1380,1460,1450,1420,1440,1400,1430,1420,1440,1450,1470,1470,1470,1450,1480,1450,1470,1460,0,0,1470,1610,1700,1770,1660,1710,1650,1710,1670,1680,1710,1580,1590,1640,1750,1690,1510,1510,1520,1500,1620,1600,1660,1680,1630,1540,1530,1510,1510,1520,1450,1480,1460,1460,1510,1540,1480,1520,1500,1470,1470,1550,1590,1640,1570,1560,1550,1510,1560,1590,1570,1560,1600,1500,1510,1490,1450,1380,1370,1370,1390,1410,1440,1480,1470,1470,1390,1380,1400,1420,1420,1430,1480,1540,1590,1620,1640,1620,1640,1640,1640,1670,1680,1740,1690,1700,1710,1650,1620,1570,1550,1540,1480,1500,1470,1420,1400,1400,1380,1360,1350,1330,1300,1280,1260,1270,1260,1250,1240,1210,1180,1160,1160,1210,1180,1150,1080,1080,1080,1080,1090,1070,1080,1100,1120,1200,1250,1220,1260,1240,1220,1230,1240,1240,1230,1220,1230,1200,1180,1210,1190,1200,1170,1180,1200,1250,1310,1300,1210,1190,1220,1170,1190,1190,1190,1200,1180,1130,1260,1130,1110,1120,1090,1100,1110,1090,1070,1070,1090,1110,1110,1130,1110,1110,1190,1260,1230,1190,1200,1080,1030,1040,1030,1030,1040,1050,1020,990,1010,1070,1130,1100,1160,1150,1170,1280,1230,1160,990,970,970,940,940,960,980,960,930,940,960,950,930,940,950,940,940,930,940,910,920,900,910,910,950,0,960,970,980,960,960,990,990,1090,1080,1080,1180,1100,1190,1190,1240,1230,1240,1280,1300,1270,1300,1300,1320,1130,1090,1050,1050,1060,1060,1080,1080,1110,1120,1140,1140,1250,1280,1280,1190,1160,1190,1210,1170,1250,1250,1260,1240,1250,1250,1280,1270,1260,1290
1650,1640,1680,1720,1710,1740,1770,1770,1770,1760,1760,1760,1740,1710,1710,1700,1700,1640,1600,1600,1460,1470,1470,1460,1440,1470,1460,1550,1440,1470,1470,1510,1580,1530,1480,1480,1500,1480,1500,1520,1540,1540,1530,1570,1650,1590,1680,1740,1760,1730,1730,1700,1690,1720,1750,1760,1770,1740,1790,1910,1880,1910,1880,1940,1910,1920,1800,1800,1780,1780,1710,1690,1640,1700,1620,1600,1600,1610,1580,1570,1600,1600,1650,1680,1720,1690,1700,1720,1650,1620,1590,1530,1620,1630,1670,1730,1710,1700,1780,1760,1790,1840,1850,1830,1800,1850,1900,1870,1910,1920,1960,1960,1960,2010,1940,1960,1960,1960,1960,2070,2040,2010,2000,1980,2010,2020,1950,1940,1930,1900,1900,1860,1840,1910,1990,1990,1980,1950,1820,1790,1760,1720,1720,1680,1650,1710,1610,1570,1530,1540,1530,1510,1500,1500,1560,1560,1620,1620,1500,1520,1520,1500,1440,1430,1420,1430,1470,1470,1480,1410,1460,1510,1470,1480,1430,1430,1500,1470,1530,1560,1550,1550,1580,1600,1610,1620,1620,1610,1520,1510,1470,1450,1420,1500,1460,1390,1500,1460,1440,1430,1390,1400,1410,1470,1540,1430,1380,1370,1380,1380,1360,1360,1360,1380,1360,1370,1460,1450,1450,1390,1430,1420,1440,1410,1420,1410,1450,1430,1440,1430,1450,1440,1430,1440,1450,0,1460,1550,1670,1680,1640,1640,1670,1680,1560,1650,1670,1650,1550,1600,1700,1600,1500,1510,1580,1600,1620,1640,1630,1660,1670,1510,1480,1470,1480,1490,1490,1450,1440,1440,1480,1500,1450,1480,1490,1460,1480,1530,1550,1520,1530,1510,1570,1540,1610,1660,1600,1610,1620,1640,1460,1510,1470,1420,1390,1320,1350,1370,1420,1400,1440,1440,1420,1420,1400,1430,1380,1420,1480,1550,1600,1610,1610,1620,1610,1620,1620,1670,1690,1740,1720,1700,1680,1640,1600,1580,1590,1530,1500,1510,1470,1440,1430,1380,1400,1350,1400,1330,1310,1300,1280,1260,1260,1250,1210,1190,1170,1160,1140,1170,1140,1130,1100,1080,1040,1090,1100,1070,1100,1110,1120,1210,1290,1280,1260,1270,1240,1250,1270,1280,1240,1280,1220,1200,1180,1190,1200,1180,1190,1200,1220,1340,1360,1410,1260,1210,1210,1170,1220,1210,1200,1180,1200,1180,1230,1120,1110,1100,1100,1120,1100,1080,1070,1150,1100,1160,1230,1210,1210,1220,1200,1230,1220,1150,1120,1120,1110,1020,1020,1030,1020,1020,1000,990,1020,1040,1080,1100,1140,1170,1160,1130,1110,990,1020,990,970,950,950,930,930,930,910,950,950,930,940,940,940,940,940,940,930,950,940,960,920,920,940,0,0,960,950,970,960,1010,1000,1080,1040,1200,1160,1200,1250,1230,1290,1280,1270,1290,1120,1230,1290,1260,1130,1070,1080,1010,1010,1050,1070,1040,1070,1180,1120,1130,1180,1300,1280,1280,1190,1160,1140,1200,1200,1240,1230,1270,1250,1260,1280,1310,1270,1270,1260
1620,1630,1700,1730,1730,1740,1790,1760,1770,1750,1750,1770,1740,1740,1740,1730,1720,1650,1580,1530,1480,1470,1460,1470,1430,1470,1460,1460,1520,1520,1480,1520,1570,1590,1570,1630,1540,1520,1560,1530,1560,1610,1520,1560,1620,1620,1670,1720,1710,1710,1780,1740,1720,1740,1760,1730,1730,1770,1840,1890,1920,1900,1890,1890,1930,1850,1810,1820,1840,1820,1750,1710,1700,1650,1630,1620,1630,1630,1610,1590,1570,1560,1590,1580,1610,1600,1670,1570,1560,1560,1550,1560,1650,1690,1680,1780,1700,1710,1700,1760,1780,1830,1860,1880,1850,1860,1900,1910,1920,1940,1960,1900,1940,1960,1940,1930,2060,1930,1940,1960,1990,1970,2010,1990,1970,2020,1940,1930,1900,1990,1870,1860,1880,1990,2010,2000,2030,2020,1850,1770,1770,1740,1720,1660,1640,1640,1590,1560,1550,1540,1570,1560,1600,1590,1610,1640,1610,1600,1530,1500,1510,1480,1450,1420,1440,1460,1460,1470,1440,1420,1470,1490,1480,1610,1630,1500,1500,1570,1580,1590,1570,1540,1540,1600,1610,1590,1580,1530,1490,1480,1490,1510,1400,1390,1400,1410,1410,1440,1380,1380,1390,1390,1450,1540,1530,1490,1430,1380,1390,1400,1360,1370,1380,1360,1380,1390,1420,1440,1470,1490,1440,1400,1420,1440,1410,1410,1410,1410,1410,1420,1400,1410,1480,1450,1420,1420,1480,1590,1600,1630,1620,1700,1620,1570,1530,1660,1710,1540,1610,1670,1610,1560,1470,1540,1600,1580,1600,1650,1620,1660,1600,1560,1580,1510,1520,1570,1560,1490,1430,1460,1420,1430,1440,1490,1490,1450,1490,1530,1610,1510,1510,1530,1560,1620,1640,1600,1600,1630,1630,1620,1510,1480,1470,1400,1360,1350,1330,1330,1360,1440,1410,1430,1460,1470,1470,1420,1410,1460,1490,1560,1590,1590,1610,1580,1600,1600,1610,1670,1700,1730,1710,1690,1640,1620,1580,1580,1560,1550,1500,1480,1500,1440,1420,1380,1350,1360,1360,1350,1310,1290,1280,1270,1250,1250,1210,1190,1160,1140,1240,1200,1150,1140,1110,1110,1090,1080,1080,1090,1100,1110,1140,1220,1310,1310,1330,1260,1270,1290,1270,1280,1240,1230,1230,1190,1210,1200,1210,1210,1200,1170,1310,1380,1360,1310,1330,1320,1200,1190,1260,1270,1240,1210,1140,1160,1210,1140,1120,1110,1110,1100,1090,1060,1100,1160,1170,1230,1230,1250,1170,1230,1210,1280,1230,1240,1180,1190,1190,1040,1040,1040,1030,1030,990,980,1050,1110,1030,1070,1120,1130,1120,1130,1100,1080,980,990,960,960,970,1000,950,970,970,960,930,930,940,950,950,960,960,920,940,940,910,950,930,930,950,0,0,950,950,940,960,970,1010,1110,1160,1190,1210,1130,1150,1280,1290,1200,1310,1260,1140,1070,1170,1140,1080,1050,1010,1050,1070,1150,1170,1100,1050,1080,1070,1080,1150,1200,1110,1130,1120,1100,1170,1170,1160,1240,1260,1290,1280,1280,1260,1280,1260,1260,1250
1590,1630,1680,1710,1760,1770,1760,1740,1740,1750,1770,1750,1750,1740,1740,1730,1710,1690,1640,1570,1510,1480,1470,1470,1440,1450,1490,1470,1550,1590,1600,1510,1540,1570,1620,1610,1620,1580,1540,1500,1570,1550,1560,1600,1600,1670,1640,1610,1690,1670,1750,1730,1660,1700,1750,1690,1740,1780,1830,1880,1890,1920,1890,1910,1920,1830,1820,1840,1880,1830,1780,1730,1790,1740,1660,1640,1680,1690,1660,1680,1670,1600,1590,1580,1580,1620,1690,1700,1670,1600,1610,1610,1600,1650,1750,1770,1780,1790,1730,1710,1730,1790,1830,1850,1870,1890,1930,1890,1900,1900,1890,1880,1930,1970,1920,1980,1950,1910,1910,1940,1970,1990,1980,1990,1980,1960,1960,1930,1900,1910,1910,1890,1920,2000,2010,2050,2030,1890,1850,1800,1790,1760,1750,1690,1620,1580,1560,1600,1540,1530,1520,1550,1660,1660,1700,1640,1630,1670,1560,1510,1490,1440,1440,1430,1470,1470,1450,1530,1530,1500,1450,1570,1570,1520,1540,1480,1460,1520,1520,1490,1530,1510,1570,1580,1560,1530,1510,1490,1460,1470,1460,1430,1420,1440,1410,1410,1380,1380,1410,1380,1400,1400,1480,1590,1580,1540,1480,1440,1410,1420,1410,1470,1410,1420,1420,1380,1370,1400,1400,1450,1420,1450,1380,1470,1440,1390,1430,1380,1370,1410,1410,1400,1410,1430,1420,0,1470,1490,1580,1570,1640,1640,1690,1690,1510,1580,1640,1550,1680,1690,1590,1440,1510,1540,1570,1540,1590,1610,1620,1660,1610,1630,1580,1540,1600,1590,1590,1530,1460,1450,1450,1470,1440,1420,1430,1450,1460,1520,1540,1480,1520,1470,1520,1620,1620,1650,1590,1600,1490,1520,1590,1530,1460,1380,1400,1360,1330,1300,1360,1350,1400,1430,1370,1370,1360,1400,1400,1490,1530,1550,1560,1560,1620,1570,1600,1610,1630,1680,1710,1750,1710,1680,1610,1600,1600,1570,1530,1530,1500,1490,1470,1450,1450,1410,1390,1370,1330,1290,1280,1290,1280,1260,1240,1230,1210,1180,1180,1200,1220,1220,1150,1120,1080,1060,1110,1090,1100,1140,1110,1120,1150,1220,1320,1350,1350,1310,1270,1250,1260,1350,1230,1240,1240,1230,1200,1220,1260,1230,1260,1180,1320,1370,1360,1340,1350,1360,1280,1330,1230,1300,1270,1210,1180,1150,1150,1120,1150,1100,1090,1100,1070,1080,1100,1220,1160,1240,1250,1220,1190,1180,1200,1260,1090,1130,1160,1080,1060,1100,1080,1030,1040,990,1010,1000,990,1110,1110,1080,1100,1110,1120,1140,1020,970,1030,990,960,1010,950,1000,960,930,950,960,930,930,940,940,940,940,950,920,960,950,920,960,940,940,930,0,930,960,960,950,940,970,1030,1040,1180,1180,1160,1200,1260,1150,1170,1200,1180,1160,1120,1020,1030,1050,1020,1070,1060,1190,1180,1200,1210,1170,1220,1070,1090,1070,1080,1230,1160,1100,1110,1170,1160,1190,1220,1210,1220,1190,1260,1240,1290,1280,1260,1270,1250
1570,1640,1640,1710,1740,1750,1760,1730,1730,1750,1760,1770,1740,1740,1740,1750,1750,1710,1640,1600,1510,1480,1470,1470,1470,1470,1470,1510,1590,1540,1640,1610,1590,1620,1620,1610,1550,1560,1600,1540,1540,1600,1600,1540,1580,1540,1620,1650,1650,1640,1700,1650,1640,1660,1710,1670,1710,1700,1770,1780,1840,1920,1910,1920,1830,1830,1830,1860,1890,1850,1780,1760,1770,1690,1730,1750,1740,1770,1760,1760,1710,1650,1590,1570,1580,1710,1720,1740,1710,1650,1670,1710,1670,1660,1740,1800,1820,1760,1770,1730,1660,1750,1810,1840,1870,1880,1860,1870,1910,1870,1940,1920,1900,1940,1940,1890,1930,1880,1930,1970,1950,1980,1980,1960,1970,1970,1970,1940,1920,1910,1960,1990,1990,1990,1980,2010,2000,1880,1840,1810,1800,1770,1730,1650,1610,1630,1570,1560,1540,1510,1520,1610,1700,1660,1660,1700,1650,1660,1550,1480,1450,1430,1440,1490,1460,1500,1480,1550,1550,1560,1550,1530,1570,1600,1630,1490,1420,1520,1530,1470,1520,1540,1550,1540,1580,1540,1470,1490,1460,1440,1490,1530,1440,1450,1440,1400,1400,1390,1370,1400,1390,1450,1570,1600,1620,1560,1550,1480,1500,1390,1510,1540,1490,1420,1420,1500,1370,1360,1370,1430,1380,1400,1410,1420,1380,1390,1380,1380,1400,1390,1390,1400,1410,1420,1430,1420,1440,1560,1510,1590,1690,1650,1500,1600,1510,1480,1520,1510,1630,1600,1460,1440,1500,1520,1520,1550,1540,1610,1620,1650,1660,1630,1610,1590,1610,1620,1620,1540,1500,1510,1480,1430,1420,1450,1410,1460,1460,1530,1540,1490,1480,1520,1550,1570,1570,1600,1600,1550,1550,1630,1490,1490,1480,1390,1440,1380,1370,1320,1330,1330,1340,1350,1320,1340,1360,1400,1450,1480,1500,1480,1510,1570,1580,1560,1570,1600,1620,1670,1680,1690,1670,1640,1590,1560,1580,1540,1510,1520,1490,1500,1470,1450,1420,1420,1400,1370,1350,1320,1260,1280,1260,1230,1220,1200,1200,1190,1170,1250,1230,1210,1200,1170,1110,1100,1100,1090,1100,1100,1160,1150,1160,1240,1310,1370,1380,1370,1280,1240,1270,1290,1270,1270,1250,1220,1210,1230,1260,1270,1220,1240,1290,1350,1360,1360,1390,1350,1380,1360,1340,1250,1220,1210,1200,1180,1160,1130,1180,1090,1090,1070,1070,1070,1170,1260,1180,1220,1230,1250,1260,1200,1230,1230,1210,1120,1110,1100,1130,1180,1050,1010,990,990,1020,1030,1070,1080,1120,1000,1010,1130,1160,1130,1030,1060,940,970,1000,980,930,1020,970,960,930,940,940,940,950,950,950,940,970,960,920,960,920,920,930,950,0,920,940,950,960,940,950,960,1000,1010,1050,1150,1180,1200,1130,1160,1170,1290,1250,1100,1090,1020,1000,1040,1020,1140,1080,1210,1220,1200,1230,1190,1210,1250,1200,1090,1100,1150,1110,1160,1160,1190,1150,1180,1220,1240,1230,1290,1220,1250,1290,1300,1280,1300,1280
1570,1610,1670,1710,1720,1730,1730,1720,1730,1760,1750,1730,1730,1770,1800,1830,1740,1710,1670,1600,1560,1480,1500,1490,1500,1500,1550,1520,1590,1650,1660,1630,1650,1670,1640,1610,1590,1610,1620,1540,1600,1640,1630,1620,1640,1610,1590,1600,1640,1670,1650,1630,1640,1710,1670,1670,1690,1740,1760,1790,1790,1880,1920,1810,1830,1850,1880,1910,1880,1850,1810,1780,1770,1750,1800,1810,1780,1800,1800,1770,1740,1700,1610,1610,1580,1640,1700,1730,1760,1700,1710,1770,1750,1750,1710,1780,1820,1770,1800,1770,1660,1750,1780,1850,1840,1860,1850,1870,1870,1920,1910,1880,1890,1920,1910,1940,1940,1880,1910,1950,1940,1930,1950,1960,1950,1960,1970,1960,1960,1920,1900,1940,1880,1890,1990,1970,1950,1830,1820,1810,1750,1750,1740,1670,1720,1680,1680,1660,1540,1520,1510,1520,1620,1600,1640,1610,1590,1540,1510,1450,1440,1440,1490,1480,1450,1510,1520,1560,1600,1570,1550,1560,1580,1610,1580,1520,1470,1440,1490,1550,1550,1540,1510,1490,1570,1550,1500,1470,1450,1440,1440,1450,1520,1440,1440,1450,1400,1380,1390,1380,1420,1420,1440,1570,1610,1540,1540,1510,1520,1510,1540,1580,1510,1540,1530,1580,1400,1390,1380,1430,1430,1380,1440,1420,1380,1360,1370,1390,1400,1390,1410,1410,1400,1420,1500,1460,1460,1540,1530,1550,1500,1460,1460,1490,1500,1440,1480,1470,1460,1450,1450,1510,1470,1500,1510,1540,1570,1600,1630,1660,1680,1650,1590,1570,1590,1620,1800,1540,1500,1530,1470,1490,1450,1450,1440,1450,1480,1520,1490,1480,1490,1500,1490,1480,1570,1610,1600,1510,1560,1660,1520,1460,1410,1410,1430,1390,1370,1370,1350,1310,1360,1350,1340,1370,1370,1410,1450,1470,1460,1490,1500,1580,1590,1560,1560,1570,1620,1650,1660,1680,1600,1590,1560,1530,1570,1550,1470,1470,1480,1520,1470,1440,1430,1410,1380,1350,1330,1320,1300,1270,1230,1210,1190,1190,1180,1210,1170,1170,1240,1190,1110,1080,1100,1100,1090,1070,1080,1100,1160,1150,1190,1230,1270,1370,1380,1330,1300,1250,1280,1290,1260,1280,1250,1230,1210,1260,1250,1270,1260,1230,1240,1350,1390,1360,1370,1370,1390,1360,1260,1310,1230,1190,1190,1170,1180,1130,1160,1100,1120,1070,1070,1130,1200,1200,1280,1260,1270,1270,1270,1270,1270,1120,1140,1180,1060,1060,1070,1100,1050,980,1010,1020,1000,1010,1030,1040,1100,1040,1060,1030,1010,1130,1000,1060,930,940,980,970,970,960,970,920,970,950,930,920,960,940,940,930,930,940,920,940,910,970,930,0,0,900,950,950,930,960,960,940,980,990,1120,1170,1180,1220,1090,1140,1250,1300,1130,1160,1040,1020,1010,1010,1030,1060,1090,1130,1100,1120,1210,1220,1180,1210,1210,1290,1200,1130,1160,1200,1210,1200,1220,1170,1210,1250,1250,1300,1270,1240,1240,1300,1300,1320,1290
1580,1640,1680,1710,1700,1700,1730,1690,1710,1750,1750,1710,1720,1770,1790,1820,1740,1730,1680,1620,1540,1510,1540,1520,1460,1530,1580,1490,1580,1640,1700,1680,1710,1700,1660,1630,1610,1610,1620,1570,1550,1670,1590,1620,1650,1640,1580,1590,1640,1610,1610,1660,1620,1630,1620,1660,1740,1720,1740,1760,1870,1840,1860,1850,1870,1870,1890,1880,1870,1820,1780,1830,1800,1770,1810,1770,1790,1820,1800,1760,1720,1710,1660,1590,1580,1590,1630,1700,1730,1750,1780,1810,1800,1780,1760,1820,1820,1830,1810,1770,1680,1710,1770,1820,1860,1880,1850,1890,1850,1910,1850,1850,1860,1860,1930,1910,1850,1880,1900,1940,1940,1900,1920,1930,1940,1930,1950,1960,1960,1950,1930,1890,1950,1910,1910,1980,1930,1810,1820,1800,1790,1730,1680,1700,1770,1820,1790,1740,1570,1550,1530,1490,1600,1510,1590,1530,1510,1500,1470,1430,1450,1500,1520,1490,1480,1500,1500,1590,1600,1560,1440,1570,1560,1610,1510,1500,1480,1480,1430,1550,1530,1550,1530,1560,1520,1470,1490,1430,1410,1410,1420,1470,1500,1500,1450,1450,1430,1420,1430,1400,1410,1410,1530,1530,1520,1470,1520,1490,1470,1470,1530,1580,1560,1520,1580,1600,1450,1440,1350,1390,1430,1390,1390,1480,1390,1410,1400,1470,1480,1390,1380,1410,1430,1420,1470,1470,1460,1570,1460,1440,1450,1440,1460,1490,1450,1420,1420,1460,1450,1500,1500,1580,1550,1570,1550,1560,1570,1570,1640,1680,1690,1630,1570,1560,1590,1720,1710,1670,1470,1490,1440,1440,1420,1490,1500,1500,1500,1530,1490,1450,1470,1450,1460,1530,1550,1640,1600,1540,1600,1560,1550,1460,1460,1470,1450,1420,1410,1360,1380,1280,1320,1310,1330,1450,1380,1440,1450,1510,1480,1590,1530,1570,1590,1540,1560,1610,1630,1640,1660,1660,1570,1580,1560,1520,1540,1530,1480,1450,1470,1490,1460,1450,1420,1390,1350,1350,1330,1310,1310,1290,1280,1220,1220,1190,1170,1180,1180,1170,1240,1200,1100,1100,1100,1090,1130,1080,1090,1160,1140,1180,1240,1250,1260,1360,1400,1320,1320,1270,1280,1300,1280,1260,1250,1230,1250,1250,1270,1280,1270,1250,1270,1320,1340,1400,1410,1290,1270,1290,1320,1260,1240,1230,1180,1170,1140,1150,1150,1100,1070,1070,1100,1160,1190,1170,1250,1280,1270,1290,1290,1250,1140,1190,1200,1120,1090,1060,1070,1070,1020,990,1010,1010,1080,1060,1030,1030,1070,1060,1110,1010,1000,1080,1070,970,960,1000,970,1000,1000,970,950,970,910,930,930,930,940,950,960,950,950,910,920,960,950,930,0,0,970,990,1000,960,950,940,970,960,950,980,1050,1190,1240,1130,1160,1230,1220,1060,1160,1120,1010,1080,1030,1060,1060,1070,1090,1070,1070,1160,1220,1280,1240,1230,1210,1250,1270,1200,1220,1230,1240,1260,1240,1200,1200,1220,1260,1310,1300,1270,1290,1280,1300,1320,1340
1590,1610,1660,1700,1680,1670,1710,1650,1720,1750,1740,1700,1700,1690,1750,1740,1730,1720,1690,1600,1490,1620,1590,1590,1510,1600,1500,1550,1650,1670,1700,1730,1710,1690,1650,1670,1680,1660,1600,1560,1590,1590,1650,1660,1670,1650,1610,1570,1610,1690,1690,1710,1700,1680,1700,1670,1680,1700,1740,1760,1820,1820,1840,1890,1830,1900,1930,1890,1840,1820,1800,1810,1800,1810,1830,1810,1810,1790,1760,1720,1670,1700,1690,1600,1570,1590,1610,1660,1720,1770,1790,1810,1820,1800,1790,1840,1850,1840,1830,1780,1740,1760,1790,1890,1910,1930,1850,1890,1890,1820,1840,1840,1840,1830,1820,1840,1850,1900,1880,1870,1900,1880,1900,1880,1930,1900,1940,1950,1960,1950,1930,1910,1930,1940,1950,1940,2010,1890,1890,1800,1800,1790,1750,1780,1830,1860,1840,1680,1610,1570,1570,1570,1510,1520,1530,1620,1470,1480,1480,1480,1490,1510,1510,1490,1490,1550,1600,1580,1580,1480,1440,1580,1550,1530,1530,1520,1520,1450,1450,1460,1520,1530,1460,1480,1510,1460,1470,1430,1400,1420,1410,1470,1510,1510,1480,1440,1430,1420,1410,1460,1450,1450,1510,1490,1520,1490,1450,1440,1460,1500,1530,1530,1580,1530,1530,1500,1460,1500,1350,1370,1410,1380,1400,1460,1400,1450,1450,1460,1480,1390,1470,1490,1460,1400,1460,1440,1490,1430,1430,1410,1440,1420,1430,1420,1440,1420,1400,1450,1580,1520,1510,1580,1600,1620,1580,1570,1600,1620,1640,1660,1650,1600,1560,1530,1610,1720,1690,1650,1530,1490,1420,1400,1440,1500,1530,1600,1510,1500,1450,1430,1430,1460,1490,1590,1590,1570,1550,1570,1640,1550,1580,1480,1460,1570,1450,1430,1420,1370,1340,1370,1310,1340,1390,1380,1380,1430,1450,1400,1430,1580,1620,1530,1500,1520,1590,1600,1610,1610,1640,1600,1570,1540,1540,1490,1510,1480,1440,1410,1450,1450,1430,1460,1420,1370,1340,1340,1320,1320,1300,1280,1250,1250,1220,1210,1190,1160,1140,1140,1130,1110,1110,1100,1100,1140,1110,1110,1120,1160,1170,1220,1230,1270,1290,1300,1350,1320,1340,1310,1290,1300,1310,1290,1270,1230,1240,1320,1340,1280,1300,1290,1190,1310,1370,1400,1380,1340,1370,1400,1330,1260,1250,1240,1190,1140,1150,1140,1140,1110,1070,1080,1100,1130,1320,1290,1230,1260,1260,1270,1300,1110,1130,1210,1210,1190,1090,1080,1040,1040,1040,1000,1020,1020,1060,1040,1030,1060,1060,1080,1040,1050,990,1040,1030,970,960,930,950,980,1010,980,950,970,940,930,920,940,940,930,920,940,900,930,940,920,960,980,0,0,990,990,970,980,960,960,930,970,970,1000,1010,1160,1210,1090,1100,1180,1100,1090,1080,1090,1010,1040,1050,1080,1060,1050,1060,1080,1080,1110,1150,1180,1180,1270,1280,1220,1290,1180,1210,1260,1220,1220,1230,1260,1260,1210,1230,1260,1290,1290,1290,1270,1300,1330,1370
1600,1620,1650,1690,1650,1670,1690,1650,1720,1740,1710,1700,1650,1680,1720,1730,1720,1700,1660,1590,1520,1610,1660,1580,1510,1560,1490,1570,1670,1690,1730,1720,1690,1710,1710,1700,1660,1610,1690,1580,1610,1690,1670,1650,1660,1630,1640,1580,1640,1700,1740,1750,1710,1680,1660,1710,1700,1730,1730,1770,1830,1810,1850,1910,1930,1880,1920,1920,1870,1860,1830,1850,1830,1860,1830,1810,1790,1760,1750,1710,1730,1670,1650,1600,1580,1620,1620,1650,1720,1760,1780,1800,1830,1840,1810,1830,1820,1890,1800,1730,1750,1720,1800,1820,1820,1900,1810,1920,1880,1790,1810,1820,1820,1800,1840,1830,1860,1840,1840,1870,1850,1840,1870,1890,1910,1900,1950,1960,1960,1950,1910,1930,1910,1950,1950,1960,1960,1960,1870,1810,1850,1830,1770,1840,1860,1830,1860,1700,1620,1550,1530,1580,1530,1490,1590,1470,1460,1460,1450,1550,1520,1590,1580,1560,1520,1530,1520,1590,1570,1490,1450,1470,1580,1640,1530,1510,1550,1510,1480,1430,1490,1490,1500,1490,1460,1430,1450,1430,1430,1410,1420,1440,1520,1500,1480,1490,1430,1420,1410,1430,1440,1540,1490,1560,1430,1420,1410,1500,1440,1500,1520,1470,1550,1490,1380,1410,1380,1430,1360,1420,1370,1360,1350,1420,1410,1400,1460,1460,1440,1390,1500,1500,1540,1400,1490,1400,1530,1540,1460,1400,1410,1410,1390,1390,1450,1420,1420,1470,1470,1450,1570,1540,1560,1580,1600,1560,1580,1570,1590,1600,1640,1600,1570,1540,1640,1660,1660,1610,1550,1460,1420,1400,1450,1510,1540,1560,1520,1490,1450,1410,1440,1490,1530,1560,1600,1590,1560,1710,1660,1580,1520,1510,1460,1460,1480,1450,1410,1370,1350,1320,1280,1320,1340,1340,1380,1410,1420,1380,1510,1560,1510,1480,1460,1530,1590,1600,1590,1580,1630,1600,1570,1530,1510,1450,1470,1470,1410,1390,1450,1430,1440,1440,1400,1370,1340,1310,1320,1310,1290,1360,1370,1270,1240,1200,1200,1170,1170,1140,1120,1090,1070,1100,1100,1130,1100,1150,1150,1210,1190,1240,1280,1350,1380,1390,1340,1380,1330,1320,1280,1310,1320,1280,1260,1240,1240,1330,1360,1280,1260,1300,1320,1270,1350,1430,1260,1370,1400,1430,1380,1260,1290,1310,1280,1190,1120,1130,1130,1100,1090,1080,1070,1220,1290,1180,1170,1130,1240,1120,1130,1130,1120,1190,1220,1210,1110,1090,1080,1050,1050,1010,1010,1030,1040,1060,1050,1020,1050,1050,1080,1060,1010,1010,1070,970,950,990,990,1010,960,960,930,960,920,960,930,970,930,960,940,910,780,960,960,910,920,0,1060,1050,1080,1000,1000,990,970,950,970,960,950,960,980,1070,1110,1090,1110,1010,1030,1070,1040,1010,1000,1010,1020,1020,1030,1070,1090,1070,1110,1100,1190,1170,1200,1250,1240,1310,1250,1180,1270,1190,1230,1230,1210,1270,1240,1270,1230,1270,1280,1290,1310,1280,1320,1360,1380
1590,1600,1650,1660,1610,1640,1650,1660,1700,1730,1680,1680,1640,1660,1700,1700,1710,1700,1620,1540,1570,1620,1600,1540,1560,1550,1490,1560,1660,1690,1730,1720,1700,1670,1690,1690,1690,1720,1700,1680,1620,1680,1670,1730,1650,1620,1610,1620,1620,1670,1780,1770,1730,1660,1670,1700,1740,1770,1790,1800,1780,1820,1870,1960,1940,1940,1920,1920,1900,1850,1850,1870,1850,1870,1830,1810,1800,1770,1760,1760,1750,1670,1670,1600,1600,1620,1590,1640,1710,1730,1750,1790,1830,1820,1830,1850,1840,1810,1810,1780,1770,1770,1790,1820,1810,1790,1810,1850,1800,1790,1810,1800,1810,1800,1850,1850,1840,1840,1820,1840,1830,1810,1860,1870,1870,1910,1940,1900,1950,1920,1900,1910,1920,1910,1930,1940,1950,1910,1890,1860,1870,1870,1810,1860,1860,1800,1810,1690,1650,1610,1550,1550,1500,1490,1490,1470,1480,1480,1530,1610,1620,1630,1560,1570,1530,1500,1620,1580,1570,1490,1450,1480,1620,1610,1590,1570,1540,1500,1480,1480,1500,1500,1470,1450,1510,1450,1480,1440,1510,1440,1400,1400,1410,1490,1420,1470,1430,1430,1540,1500,1510,1520,1470,1420,1460,1430,1400,1430,1440,1460,1460,1450,1530,1470,1400,1420,1410,1400,1360,1400,1380,1360,1380,1410,1430,1400,1470,1400,1360,1380,1490,1530,1530,1410,1390,1400,1410,1540,1490,1440,1430,1420,1470,1490,1400,1420,1410,1460,1480,1520,1450,1490,1530,1570,1560,1530,1510,1550,1540,1570,1630,1590,1570,1660,1620,1610,1640,1580,1530,1430,1380,1400,1440,1480,1520,1540,1500,1440,1430,1440,1450,1470,1510,1550,1580,1580,1550,1620,1600,1600,1510,1470,1480,1420,1420,1410,1390,1360,1320,1330,1290,1310,1340,1380,1350,1360,1380,1440,1440,1450,1510,1440,1490,1530,1550,1580,1540,1620,1660,1680,1550,1490,1540,1480,1430,1440,1400,1410,1430,1410,1430,1440,1390,1480,1450,1410,1370,1300,1330,1390,1360,1300,1250,1220,1190,1160,1160,1130,1120,1100,1100,1090,1100,1100,1110,1230,1150,1190,1230,1270,1320,1350,1360,1410,1330,1370,1350,1280,1320,1350,1370,1370,1280,1300,1280,1370,1380,1320,1330,1270,1320,1240,1370,1440,1400,1360,1390,1410,1320,1340,1310,1340,1330,1170,1150,1160,1180,1180,1130,1080,1140,1220,1250,1210,1250,1250,1120,1120,1120,1120,1140,1150,1230,1160,1120,1070,1060,1040,1060,1020,1030,1020,1090,1080,1160,1050,1090,1070,1110,1100,970,1020,1010,980,950,990,970,980,950,960,940,940,930,950,950,940,930,950,950,950,950,930,930,0,0,0,1140,1170,1110,1110,1040,1000,980,960,960,970,930,960,960,1010,1000,1030,970,980,1000,980,990,1000,1010,1030,1020,1060,1060,1020,1120,1150,1140,1090,1180,1120,1190,1220,1270,1240,1140,1220,1250,1160,1200,1210,1260,1240,1240,1240,1270,1260,1300,1290,1300,1310,1340,1350,1370
